ply
format ascii 1.0
element vertex 1723
property float x
property float y
property float z
end_header
0.128904 0.042176 0.219276
0.128904 0.042176 0.235276
0.128904 0.058176 0.219276
0.112904 0.074176 0.219276
0.112904 0.090176 0.219276
0.128904 0.074176 0.219276
0.128904 0.090176 0.219276
0.080904 0.106176 0.203276
0.080904 0.122176 0.203276
0.096904 0.106176 0.203276
0.096904 0.122176 0.203276
0.096904 0.106176 0.219276
0.080904 0.138176 0.187276
0.080904 0.154176 0.187276
0.096904 0.138176 0.187276
0.096904 0.138176 0.203276
0.096904 0.154176 0.187276
0.112904 0.106176 0.203276
0.112904 0.122176 0.203276
0.128904 0.106176 0.203276
0.128904 0.122176 0.203276
0.112904 0.106176 0.219276
0.128904 0.106176 0.219276
0.112904 0.138176 0.187276
0.112904 0.138176 0.203276
0.112904 0.154176 0.187276
0.128904 0.138176 0.187276
0.128904 0.138176 0.203276
0.128904 0.154176 0.187276
0.144904 0.042176 0.219276
0.144904 0.042176 0.235276
0.144904 0.058176 0.219276
0.160904 0.042176 0.219276
0.160904 0.042176 0.235276
0.160904 0.058176 0.219276
0.144904 0.074176 0.219276
0.144904 0.090176 0.219276
0.160904 0.074176 0.219276
0.160904 0.090176 0.219276
0.176904 0.042176 0.219276
0.176904 0.042176 0.235276
0.176904 0.058176 0.219276
0.192904 0.042176 0.219276
0.192904 0.042176 0.235276
0.192904 0.058176 0.219276
0.176904 0.074176 0.219276
0.176904 0.090176 0.219276
0.192904 0.074176 0.219276
0.192904 0.090176 0.219276
0.160904 0.042176 0.251276
0.144904 0.106176 0.203276
0.144904 0.122176 0.203276
0.160904 0.122176 0.203276
0.144904 0.106176 0.219276
0.160904 0.106176 0.219276
0.144904 0.138176 0.203276
0.144904 0.154176 0.187276
0.160904 0.138176 0.203276
0.160904 0.154176 0.187276
0.176904 0.122176 0.203276
0.192904 0.106176 0.203276
0.192904 0.122176 0.203276
0.176904 0.106176 0.219276
0.192904 0.106176 0.219276
0.176904 0.138176 0.203276
0.176904 0.154176 0.187276
0.192904 0.138176 0.187276
0.192904 0.138176 0.203276
0.192904 0.154176 0.187276
-0.047096 0.186176 -0.068724
-0.031096 0.186176 -0.068724
-0.031096 0.186176 -0.052724
-0.031096 0.186176 -0.036724
-0.047096 0.202176 -0.068724
-0.047096 0.202176 -0.052724
-0.031096 0.202176 -0.052724
-0.047096 0.202176 -0.036724
-0.047096 0.202176 -0.020724
-0.031096 0.202176 -0.036724
-0.031096 0.202176 -0.020724
-0.015096 0.186176 -0.068724
-0.015096 0.186176 -0.052724
0.000904 0.186176 -0.068724
0.000904 0.186176 -0.052724
-0.015096 0.186176 -0.036724
-0.015096 0.186176 -0.020724
0.000904 0.186176 -0.036724
-0.015096 0.202176 -0.020724
0.000904 0.202176 -0.020724
-0.047096 0.202176 -0.004724
-0.047096 0.202176 0.011276
-0.031096 0.202176 -0.004724
-0.031096 0.202176 0.011276
-0.047096 0.202176 0.027276
-0.047096 0.202176 0.043276
-0.031096 0.202176 0.027276
-0.031096 0.202176 0.043276
-0.015096 0.186176 0.043276
-0.015096 0.202176 -0.004724
-0.015096 0.202176 0.011276
0.000904 0.202176 -0.004724
0.000904 0.202176 0.011276
-0.015096 0.202176 0.027276
-0.015096 0.202176 0.043276
0.000904 0.202176 0.027276
0.000904 0.202176 0.043276
0.016904 0.186176 -0.068724
0.016904 0.186176 -0.052724
0.032904 0.186176 -0.068724
0.032904 0.186176 -0.052724
0.032904 0.202176 -0.052724
0.016904 0.202176 -0.036724
0.016904 0.202176 -0.020724
0.032904 0.202176 -0.036724
0.032904 0.202176 -0.020724
0.048904 0.186176 -0.068724
0.064904 0.186176 -0.068724
0.048904 0.202176 -0.068724
0.048904 0.202176 -0.052724
0.064904 0.202176 -0.068724
0.064904 0.202176 -0.052724
0.048904 0.202176 -0.036724
0.048904 0.202176 -0.020724
0.064904 0.202176 -0.036724
0.064904 0.202176 -0.020724
0.064904 0.218176 -0.036724
0.064904 0.218176 -0.020724
0.016904 0.202176 -0.004724
0.016904 0.202176 0.011276
0.032904 0.202176 -0.004724
0.032904 0.202176 0.011276
0.016904 0.202176 0.027276
0.016904 0.202176 0.043276
0.032904 0.202176 0.027276
0.032904 0.202176 0.043276
0.048904 0.202176 -0.004724
0.048904 0.202176 0.011276
0.048904 0.218176 0.011276
0.064904 0.218176 -0.004724
0.064904 0.218176 0.011276
0.048904 0.202176 0.027276
0.048904 0.202176 0.043276
0.048904 0.218176 0.027276
0.048904 0.218176 0.043276
0.064904 0.218176 0.027276
0.064904 0.218176 0.043276
-0.047096 0.186176 0.075276
-0.031096 0.186176 0.059276
-0.031096 0.186176 0.075276
-0.047096 0.170176 0.107276
-0.047096 0.186176 0.091276
-0.047096 0.186176 0.107276
-0.031096 0.170176 0.091276
-0.031096 0.170176 0.107276
-0.031096 0.186176 0.091276
-0.047096 0.202176 0.059276
-0.047096 0.202176 0.075276
-0.031096 0.202176 0.059276
-0.015096 0.186176 0.059276
-0.015096 0.186176 0.075276
0.000904 0.186176 0.059276
0.000904 0.186176 0.075276
-0.015096 0.170176 0.091276
-0.015096 0.170176 0.107276
-0.015096 0.186176 0.091276
0.000904 0.170176 0.091276
0.000904 0.170176 0.107276
0.000904 0.186176 0.091276
-0.047096 0.170176 0.123276
-0.031096 0.170176 0.123276
-0.015096 0.170176 0.123276
0.000904 0.170176 0.123276
0.016904 0.186176 0.059276
0.016904 0.186176 0.075276
0.016904 0.170176 0.107276
0.016904 0.186176 0.091276
0.032904 0.186176 0.091276
0.032904 0.186176 0.107276
0.016904 0.202176 0.059276
0.032904 0.202176 0.059276
0.032904 0.202176 0.075276
0.048904 0.186176 0.091276
0.048904 0.186176 0.107276
0.064904 0.186176 0.107276
0.048904 0.202176 0.059276
0.048904 0.202176 0.075276
0.064904 0.202176 0.075276
0.064904 0.218176 0.059276
0.064904 0.218176 0.075276
0.048904 0.202176 0.091276
0.064904 0.202176 0.091276
0.064904 0.202176 0.107276
0.016904 0.170176 0.123276
0.016904 0.170176 0.139276
0.032904 0.170176 0.123276
0.032904 0.170176 0.139276
0.048904 0.170176 0.139276
0.048904 0.186176 0.123276
0.064904 0.170176 0.139276
0.064904 0.186176 0.123276
0.064904 0.186176 0.139276
0.048904 0.170176 0.155276
0.064904 0.170176 0.155276
-0.047096 0.362176 -0.068724
-0.047096 0.362176 -0.052724
-0.047096 0.378176 -0.052724
-0.031096 0.362176 -0.068724
-0.031096 0.378176 -0.068724
-0.031096 0.378176 -0.052724
-0.047096 0.378176 -0.036724
-0.031096 0.394176 -0.052724
-0.031096 0.410176 -0.052724
-0.047096 0.394176 -0.036724
-0.047096 0.410176 -0.036724
-0.031096 0.410176 -0.036724
-0.015096 0.378176 -0.068724
-0.015096 0.394176 -0.068724
-0.015096 0.394176 -0.052724
-0.015096 0.410176 -0.052724
0.000904 0.394176 -0.068724
0.000904 0.410176 -0.068724
0.000904 0.410176 -0.052724
0.016904 0.394176 -0.068724
0.016904 0.410176 -0.068724
0.032904 0.410176 -0.068724
0.080904 0.202176 -0.068724
0.080904 0.202176 -0.052724
0.096904 0.202176 -0.068724
0.096904 0.218176 -0.052724
0.080904 0.202176 -0.036724
0.080904 0.218176 -0.036724
0.080904 0.218176 -0.020724
0.096904 0.218176 -0.036724
0.096904 0.218176 -0.020724
0.112904 0.218176 -0.068724
0.112904 0.218176 -0.052724
0.128904 0.218176 -0.068724
0.128904 0.218176 -0.052724
0.112904 0.218176 -0.036724
0.112904 0.218176 -0.020724
0.128904 0.218176 -0.036724
0.128904 0.218176 -0.020724
0.080904 0.218176 -0.004724
0.080904 0.218176 0.011276
0.096904 0.218176 -0.004724
0.096904 0.218176 0.011276
0.080904 0.218176 0.027276
0.080904 0.218176 0.043276
0.096904 0.218176 0.027276
0.096904 0.218176 0.043276
0.112904 0.218176 -0.004724
0.112904 0.218176 0.011276
0.128904 0.218176 -0.004724
0.112904 0.218176 0.027276
0.112904 0.218176 0.043276
0.128904 0.234176 -0.020724
0.128904 0.234176 -0.004724
0.128904 0.234176 0.011276
0.128904 0.234176 0.027276
0.128904 0.234176 0.043276
0.144904 0.218176 -0.068724
0.144904 0.218176 -0.052724
0.160904 0.218176 -0.068724
0.160904 0.218176 -0.052724
0.144904 0.218176 -0.036724
0.144904 0.218176 -0.020724
0.176904 0.218176 -0.068724
0.176904 0.218176 -0.052724
0.192904 0.218176 -0.068724
0.192904 0.218176 -0.052724
0.144904 0.234176 -0.036724
0.144904 0.234176 -0.020724
0.160904 0.234176 -0.036724
0.160904 0.234176 -0.020724
0.176904 0.234176 -0.052724
0.192904 0.234176 -0.052724
0.176904 0.234176 -0.036724
0.176904 0.234176 -0.020724
0.192904 0.234176 -0.036724
0.192904 0.234176 -0.020724
0.144904 0.234176 -0.004724
0.144904 0.234176 0.011276
0.160904 0.234176 -0.004724
0.160904 0.234176 0.011276
0.144904 0.234176 0.027276
0.144904 0.234176 0.043276
0.160904 0.234176 0.027276
0.160904 0.234176 0.043276
0.176904 0.234176 -0.004724
0.176904 0.234176 0.011276
0.192904 0.234176 -0.004724
0.192904 0.234176 0.011276
0.176904 0.234176 0.027276
0.176904 0.234176 0.043276
0.192904 0.234176 0.027276
0.192904 0.234176 0.043276
0.080904 0.218176 0.059276
0.080904 0.218176 0.075276
0.096904 0.218176 0.059276
0.096904 0.218176 0.075276
0.080904 0.202176 0.091276
0.080904 0.202176 0.107276
0.080904 0.218176 0.091276
0.096904 0.202176 0.107276
0.096904 0.218176 0.091276
0.096904 0.218176 0.107276
0.112904 0.218176 0.059276
0.112904 0.218176 0.075276
0.128904 0.218176 0.059276
0.128904 0.218176 0.075276
0.112904 0.218176 0.091276
0.112904 0.218176 0.107276
0.128904 0.218176 0.091276
0.128904 0.218176 0.107276
0.080904 0.186176 0.123276
0.080904 0.186176 0.139276
0.096904 0.186176 0.139276
0.080904 0.170176 0.155276
0.080904 0.170176 0.171276
0.080904 0.186176 0.155276
0.096904 0.170176 0.155276
0.096904 0.170176 0.171276
0.096904 0.186176 0.155276
0.080904 0.202176 0.123276
0.096904 0.202176 0.123276
0.112904 0.186176 0.139276
0.128904 0.186176 0.139276
0.112904 0.170176 0.171276
0.112904 0.186176 0.155276
0.128904 0.170176 0.171276
0.128904 0.186176 0.155276
0.112904 0.202176 0.123276
0.112904 0.202176 0.139276
0.128904 0.202176 0.123276
0.128904 0.202176 0.139276
0.128904 0.218176 0.123276
0.128904 0.234176 0.059276
0.144904 0.218176 0.091276
0.144904 0.218176 0.107276
0.160904 0.218176 0.091276
0.160904 0.218176 0.107276
0.176904 0.218176 0.091276
0.176904 0.218176 0.107276
0.192904 0.218176 0.091276
0.192904 0.218176 0.107276
0.144904 0.170176 0.171276
0.144904 0.186176 0.155276
0.144904 0.186176 0.171276
0.160904 0.170176 0.171276
0.160904 0.186176 0.155276
0.160904 0.186176 0.171276
0.144904 0.202176 0.139276
0.144904 0.218176 0.123276
0.160904 0.202176 0.123276
0.160904 0.202176 0.139276
0.160904 0.218176 0.123276
0.160904 0.202176 0.155276
0.176904 0.170176 0.171276
0.176904 0.186176 0.155276
0.176904 0.186176 0.171276
0.192904 0.170176 0.171276
0.192904 0.186176 0.155276
0.176904 0.202176 0.123276
0.176904 0.202176 0.139276
0.176904 0.218176 0.123276
0.192904 0.202176 0.123276
0.192904 0.202176 0.139276
0.192904 0.218176 0.123276
0.176904 0.202176 0.155276
0.192904 0.202176 0.155276
0.144904 0.234176 0.059276
0.144904 0.234176 0.075276
0.160904 0.234176 0.059276
0.160904 0.234176 0.075276
0.160904 0.234176 0.091276
0.176904 0.234176 0.059276
0.176904 0.234176 0.075276
0.192904 0.234176 0.059276
0.192904 0.234176 0.075276
0.176904 0.234176 0.091276
0.192904 0.234176 0.091276
0.144904 0.170176 0.187276
0.160904 0.170176 0.187276
0.208904 0.154176 0.171276
0.224904 0.154176 0.171276
0.240904 0.154176 0.171276
0.256904 0.138176 0.171276
0.256904 0.154176 0.171276
0.288904 0.122176 0.171276
0.272904 0.138176 0.171276
0.272904 0.154176 0.171276
0.288904 0.138176 0.171276
0.288904 0.154176 0.155276
0.288904 0.154176 0.171276
0.304904 0.106176 0.171276
0.304904 0.122176 0.171276
0.320904 0.106176 0.171276
0.320904 0.122176 0.155276
0.320904 0.122176 0.171276
0.320904 0.154176 0.139276
0.304904 0.138176 0.171276
0.304904 0.154176 0.155276
0.304904 0.154176 0.171276
0.320904 0.138176 0.155276
0.320904 0.154176 0.155276
0.448904 -0.085824 -0.068724
0.448904 -0.069824 -0.068724
0.448904 -0.069824 -0.052724
0.448904 -0.053824 -0.068724
0.448904 -0.037824 -0.068724
0.448904 -0.021824 -0.068724
0.448904 -0.005824 -0.068724
0.448904 -0.005824 -0.052724
0.448904 -0.005824 -0.036724
0.432904 0.010176 -0.068724
0.432904 0.026176 -0.068724
0.448904 0.010176 -0.068724
0.448904 0.010176 -0.052724
0.448904 0.026176 -0.068724
0.448904 0.026176 -0.052724
0.448904 0.010176 -0.036724
0.448904 0.010176 -0.020724
0.448904 0.026176 -0.036724
0.448904 0.026176 -0.020724
0.448904 0.010176 -0.004724
0.448904 0.010176 0.011276
0.448904 0.026176 -0.004724
0.448904 0.026176 0.011276
0.448904 0.010176 0.027276
0.448904 0.010176 0.043276
0.448904 0.026176 0.027276
0.448904 0.026176 0.043276
0.384904 0.026176 0.171276
0.448904 -0.085824 0.107276
0.448904 -0.069824 0.107276
0.448904 -0.053824 0.091276
0.448904 -0.053824 0.107276
0.448904 -0.037824 0.091276
0.448904 -0.037824 0.107276
0.416904 -0.085824 0.171276
0.416904 -0.069824 0.155276
0.416904 -0.069824 0.171276
0.416904 -0.053824 0.155276
0.416904 -0.053824 0.171276
0.416904 -0.037824 0.155276
0.416904 -0.037824 0.171276
0.432904 -0.085824 0.139276
0.432904 -0.069824 0.139276
0.448904 -0.085824 0.123276
0.448904 -0.085824 0.139276
0.448904 -0.069824 0.123276
0.432904 -0.085824 0.155276
0.432904 -0.069824 0.155276
0.432904 -0.053824 0.139276
0.432904 -0.037824 0.123276
0.432904 -0.037824 0.139276
0.448904 -0.053824 0.123276
0.448904 -0.037824 0.123276
0.432904 -0.053824 0.155276
0.432904 -0.037824 0.155276
0.448904 -0.005824 0.059276
0.448904 -0.005824 0.075276
0.448904 -0.021824 0.091276
0.448904 -0.021824 0.107276
0.448904 -0.005824 0.091276
0.448904 -0.005824 0.107276
0.432904 0.026176 0.075276
0.448904 0.010176 0.059276
0.448904 0.010176 0.075276
0.448904 0.026176 0.059276
0.448904 0.026176 0.075276
0.432904 0.010176 0.107276
0.432904 0.026176 0.091276
0.432904 0.026176 0.107276
0.448904 0.010176 0.091276
0.448904 0.010176 0.107276
0.448904 0.026176 0.091276
0.400904 -0.005824 0.171276
0.416904 -0.021824 0.155276
0.416904 -0.021824 0.171276
0.416904 -0.005824 0.155276
0.416904 -0.005824 0.171276
0.416904 0.010176 0.139276
0.416904 0.026176 0.123276
0.416904 0.026176 0.139276
0.400904 0.010176 0.155276
0.400904 0.010176 0.171276
0.400904 0.026176 0.155276
0.400904 0.026176 0.171276
0.416904 0.010176 0.155276
0.416904 0.026176 0.155276
0.432904 -0.021824 0.123276
0.432904 -0.021824 0.139276
0.432904 -0.005824 0.123276
0.432904 -0.005824 0.139276
0.448904 -0.021824 0.123276
0.448904 -0.005824 0.123276
0.432904 -0.021824 0.155276
0.432904 0.010176 0.123276
0.432904 0.010176 0.139276
0.432904 0.026176 0.123276
0.336904 0.154176 -0.068724
0.352904 0.138176 -0.068724
0.352904 0.154176 -0.068724
0.352904 0.154176 -0.052724
0.352904 0.154176 -0.036724
0.352904 0.154176 -0.020724
0.368904 0.122176 -0.068724
0.384904 0.106176 -0.068724
0.384904 0.122176 -0.068724
0.384904 0.122176 -0.052724
0.384904 0.122176 -0.036724
0.384904 0.122176 -0.020724
0.368904 0.138176 -0.068724
0.368904 0.138176 -0.052724
0.368904 0.154176 -0.052724
0.384904 0.138176 -0.052724
0.368904 0.138176 -0.036724
0.368904 0.154176 -0.036724
0.368904 0.154176 -0.020724
0.384904 0.138176 -0.036724
0.384904 0.138176 -0.020724
0.352904 0.154176 -0.004724
0.384904 0.122176 0.011276
0.384904 0.122176 0.027276
0.384904 0.122176 0.043276
0.368904 0.154176 -0.004724
0.368904 0.154176 0.011276
0.384904 0.138176 -0.004724
0.384904 0.138176 0.011276
0.384904 0.154176 0.011276
0.368904 0.154176 0.027276
0.368904 0.154176 0.043276
0.384904 0.138176 0.027276
0.384904 0.138176 0.043276
0.416904 0.058176 -0.068724
0.400904 0.090176 -0.068724
0.400904 0.090176 -0.052724
0.416904 0.074176 -0.068724
0.416904 0.074176 -0.052724
0.416904 0.090176 -0.068724
0.416904 0.090176 -0.052724
0.416904 0.074176 -0.036724
0.416904 0.090176 -0.036724
0.416904 0.090176 -0.020724
0.432904 0.042176 -0.068724
0.432904 0.042176 -0.052724
0.432904 0.058176 -0.068724
0.432904 0.058176 -0.052724
0.448904 0.042176 -0.052724
0.432904 0.042176 -0.036724
0.432904 0.058176 -0.036724
0.432904 0.058176 -0.020724
0.448904 0.042176 -0.036724
0.448904 0.042176 -0.020724
0.432904 0.074176 -0.052724
0.432904 0.074176 -0.036724
0.432904 0.074176 -0.020724
0.416904 0.074176 -0.004724
0.416904 0.090176 -0.004724
0.416904 0.090176 0.011276
0.416904 0.090176 0.027276
0.416904 0.090176 0.043276
0.432904 0.058176 -0.004724
0.432904 0.058176 0.011276
0.448904 0.042176 -0.004724
0.448904 0.042176 0.011276
0.432904 0.042176 0.027276
0.432904 0.042176 0.043276
0.432904 0.058176 0.027276
0.432904 0.058176 0.043276
0.448904 0.042176 0.027276
0.448904 0.042176 0.043276
0.432904 0.074176 -0.004724
0.432904 0.074176 0.011276
0.432904 0.074176 0.027276
0.432904 0.074176 0.043276
0.400904 0.106176 -0.068724
0.400904 0.106176 -0.052724
0.400904 0.122176 -0.052724
0.400904 0.106176 -0.036724
0.400904 0.106176 -0.020724
0.400904 0.122176 -0.036724
0.400904 0.122176 -0.020724
0.416904 0.106176 -0.036724
0.416904 0.106176 -0.020724
0.400904 0.106176 -0.004724
0.400904 0.106176 0.011276
0.400904 0.122176 -0.004724
0.400904 0.122176 0.011276
0.416904 0.106176 -0.004724
0.416904 0.106176 0.011276
0.400904 0.106176 0.027276
0.400904 0.106176 0.043276
0.400904 0.122176 0.027276
0.400904 0.122176 0.043276
0.416904 0.106176 0.027276
0.416904 0.106176 0.043276
0.336904 0.090176 0.171276
0.352904 0.074176 0.171276
0.352904 0.090176 0.171276
0.368904 0.042176 0.171276
0.368904 0.058176 0.171276
0.384904 0.042176 0.171276
0.384904 0.058176 0.155276
0.384904 0.058176 0.171276
0.384904 0.074176 0.139276
0.384904 0.090176 0.123276
0.384904 0.090176 0.139276
0.368904 0.074176 0.155276
0.368904 0.074176 0.171276
0.368904 0.090176 0.155276
0.368904 0.090176 0.171276
0.384904 0.074176 0.155276
0.384904 0.090176 0.155276
0.352904 0.154176 0.059276
0.352904 0.154176 0.075276
0.336904 0.154176 0.107276
0.352904 0.154176 0.091276
0.352904 0.154176 0.107276
0.384904 0.122176 0.059276
0.384904 0.122176 0.075276
0.384904 0.106176 0.107276
0.384904 0.122176 0.091276
0.384904 0.122176 0.107276
0.368904 0.138176 0.075276
0.368904 0.154176 0.059276
0.368904 0.154176 0.075276
0.384904 0.138176 0.059276
0.384904 0.138176 0.075276
0.368904 0.138176 0.091276
0.368904 0.138176 0.107276
0.368904 0.154176 0.091276
0.368904 0.154176 0.107276
0.384904 0.138176 0.091276
0.384904 0.138176 0.107276
0.352904 0.122176 0.139276
0.336904 0.106176 0.171276
0.336904 0.122176 0.155276
0.336904 0.122176 0.171276
0.352904 0.106176 0.155276
0.352904 0.106176 0.171276
0.352904 0.122176 0.155276
0.336904 0.138176 0.139276
0.336904 0.154176 0.123276
0.336904 0.154176 0.139276
0.352904 0.138176 0.123276
0.352904 0.138176 0.139276
0.352904 0.154176 0.123276
0.336904 0.138176 0.155276
0.368904 0.106176 0.139276
0.368904 0.122176 0.123276
0.368904 0.122176 0.139276
0.384904 0.106176 0.123276
0.384904 0.106176 0.139276
0.384904 0.122176 0.123276
0.368904 0.106176 0.155276
0.368904 0.138176 0.123276
0.416904 0.058176 0.107276
0.416904 0.074176 0.059276
0.416904 0.074176 0.075276
0.416904 0.090176 0.059276
0.416904 0.090176 0.075276
0.400904 0.090176 0.091276
0.400904 0.090176 0.107276
0.416904 0.074176 0.091276
0.416904 0.074176 0.107276
0.416904 0.090176 0.091276
0.416904 0.090176 0.107276
0.432904 0.042176 0.059276
0.432904 0.042176 0.075276
0.432904 0.058176 0.059276
0.432904 0.058176 0.075276
0.448904 0.042176 0.059276
0.432904 0.042176 0.091276
0.432904 0.042176 0.107276
0.432904 0.058176 0.091276
0.432904 0.074176 0.059276
0.432904 0.074176 0.075276
0.432904 0.074176 0.091276
0.400904 0.042176 0.139276
0.400904 0.058176 0.139276
0.416904 0.042176 0.123276
0.416904 0.042176 0.139276
0.416904 0.058176 0.123276
0.416904 0.058176 0.139276
0.400904 0.042176 0.155276
0.400904 0.042176 0.171276
0.400904 0.058176 0.155276
0.400904 0.074176 0.123276
0.400904 0.074176 0.139276
0.400904 0.090176 0.123276
0.416904 0.074176 0.123276
0.432904 0.042176 0.123276
0.400904 0.106176 0.059276
0.400904 0.106176 0.075276
0.400904 0.122176 0.059276
0.400904 0.122176 0.075276
0.416904 0.106176 0.059276
0.416904 0.106176 0.075276
0.400904 0.106176 0.091276
0.400904 0.106176 0.107276
0.400904 0.122176 0.091276
0.400904 0.106176 0.123276
0.208904 -0.085824 0.299276
0.208904 -0.069824 0.299276
0.224904 -0.085824 0.299276
0.224904 -0.069824 0.299276
0.208904 -0.053824 0.299276
0.208904 -0.037824 0.299276
0.224904 -0.053824 0.299276
0.224904 -0.037824 0.299276
0.240904 -0.085824 0.283276
0.240904 -0.085824 0.299276
0.240904 -0.069824 0.283276
0.240904 -0.069824 0.299276
0.256904 -0.085824 0.283276
0.256904 -0.069824 0.283276
0.240904 -0.053824 0.283276
0.240904 -0.053824 0.299276
0.240904 -0.037824 0.283276
0.240904 -0.037824 0.299276
0.256904 -0.053824 0.283276
0.256904 -0.037824 0.283276
0.208904 0.026176 0.235276
0.224904 -0.005824 0.267276
0.208904 -0.021824 0.283276
0.208904 -0.021824 0.299276
0.208904 -0.005824 0.283276
0.224904 -0.021824 0.283276
0.224904 -0.005824 0.283276
0.208904 0.010176 0.267276
0.208904 0.026176 0.251276
0.224904 0.010176 0.251276
0.224904 0.010176 0.267276
0.224904 0.026176 0.251276
0.208904 0.010176 0.283276
0.240904 -0.005824 0.267276
0.256904 -0.021824 0.267276
0.256904 -0.005824 0.267276
0.240904 -0.021824 0.283276
0.240904 -0.005824 0.283276
0.256904 -0.021824 0.283276
0.240904 0.010176 0.251276
0.240904 0.010176 0.267276
0.240904 0.026176 0.251276
0.256904 0.010176 0.251276
0.256904 0.010176 0.267276
0.256904 0.026176 0.251276
0.272904 -0.069824 0.267276
0.288904 -0.085824 0.267276
0.288904 -0.069824 0.267276
0.272904 -0.085824 0.283276
0.272904 -0.069824 0.283276
0.288904 -0.085824 0.283276
0.272904 -0.053824 0.267276
0.272904 -0.037824 0.267276
0.288904 -0.053824 0.251276
0.288904 -0.053824 0.267276
0.288904 -0.037824 0.251276
0.288904 -0.037824 0.267276
0.272904 -0.037824 0.283276
0.304904 -0.085824 0.267276
0.304904 -0.069824 0.267276
0.320904 -0.085824 0.251276
0.320904 -0.085824 0.267276
0.320904 -0.069824 0.251276
0.320904 -0.069824 0.267276
0.304904 -0.053824 0.251276
0.304904 -0.053824 0.267276
0.304904 -0.037824 0.251276
0.320904 -0.053824 0.251276
0.320904 -0.037824 0.251276
0.288904 0.026176 0.235276
0.320904 -0.005824 0.235276
0.304904 0.010176 0.235276
0.304904 0.026176 0.235276
0.320904 0.010176 0.235276
0.320904 0.026176 0.219276
0.320904 0.026176 0.235276
0.272904 -0.021824 0.251276
0.272904 -0.021824 0.267276
0.272904 -0.005824 0.251276
0.272904 -0.005824 0.267276
0.288904 -0.021824 0.251276
0.288904 -0.021824 0.267276
0.288904 -0.005824 0.251276
0.272904 0.010176 0.251276
0.272904 0.026176 0.251276
0.288904 0.010176 0.251276
0.288904 0.026176 0.251276
0.304904 -0.021824 0.251276
0.304904 -0.005824 0.251276
0.320904 -0.021824 0.251276
0.320904 -0.005824 0.251276
0.304904 0.010176 0.251276
0.208904 -0.085824 0.315276
0.208904 -0.069824 0.315276
0.208904 -0.053824 0.315276
0.208904 0.042176 0.219276
0.208904 0.042176 0.235276
0.208904 0.058176 0.219276
0.224904 0.042176 0.235276
0.224904 0.058176 0.219276
0.224904 0.058176 0.235276
0.208904 0.074176 0.203276
0.208904 0.090176 0.203276
0.224904 0.074176 0.203276
0.224904 0.090176 0.203276
0.208904 0.074176 0.219276
0.208904 0.090176 0.219276
0.224904 0.074176 0.219276
0.240904 0.058176 0.235276
0.256904 0.058176 0.235276
0.240904 0.074176 0.203276
0.240904 0.090176 0.203276
0.256904 0.090176 0.203276
0.240904 0.074176 0.219276
0.256904 0.074176 0.219276
0.240904 0.042176 0.251276
0.256904 0.042176 0.251276
0.208904 0.106176 0.203276
0.208904 0.122176 0.203276
0.224904 0.106176 0.203276
0.224904 0.122176 0.187276
0.224904 0.122176 0.203276
0.208904 0.138176 0.187276
0.208904 0.138176 0.203276
0.208904 0.154176 0.187276
0.224904 0.138176 0.187276
0.224904 0.154176 0.187276
0.240904 0.106176 0.187276
0.240904 0.106176 0.203276
0.240904 0.122176 0.187276
0.256904 0.106176 0.187276
0.256904 0.106176 0.203276
0.256904 0.122176 0.187276
0.240904 0.138176 0.187276
0.240904 0.154176 0.187276
0.256904 0.138176 0.187276
0.272904 0.042176 0.235276
0.272904 0.058176 0.235276
0.288904 0.042176 0.235276
0.288904 0.058176 0.219276
0.288904 0.058176 0.235276
0.272904 0.074176 0.203276
0.272904 0.090176 0.203276
0.288904 0.074176 0.203276
0.288904 0.090176 0.187276
0.288904 0.090176 0.203276
0.272904 0.074176 0.219276
0.288904 0.074176 0.219276
0.320904 0.058176 0.203276
0.304904 0.042176 0.219276
0.304904 0.042176 0.235276
0.304904 0.058176 0.219276
0.320904 0.042176 0.219276
0.320904 0.042176 0.235276
0.320904 0.058176 0.219276
0.304904 0.074176 0.203276
0.304904 0.090176 0.187276
0.304904 0.090176 0.203276
0.320904 0.074176 0.187276
0.320904 0.074176 0.203276
0.320904 0.090176 0.187276
0.304904 0.074176 0.219276
0.272904 0.106176 0.187276
0.272904 0.106176 0.203276
0.272904 0.122176 0.187276
0.288904 0.106176 0.187276
0.288904 0.122176 0.187276
0.304904 0.106176 0.187276
0.304904 0.122176 0.187276
0.320904 0.106176 0.187276
0.352904 -0.085824 0.219276
0.352904 -0.085824 0.235276
0.352904 -0.069824 0.219276
0.352904 -0.069824 0.235276
0.336904 -0.053824 0.235276
0.336904 -0.037824 0.235276
0.352904 -0.053824 0.219276
0.352904 -0.053824 0.235276
0.352904 -0.037824 0.219276
0.352904 -0.037824 0.235276
0.384904 -0.085824 0.203276
0.384904 -0.069824 0.203276
0.368904 -0.085824 0.219276
0.368904 -0.069824 0.219276
0.384904 -0.085824 0.219276
0.384904 -0.069824 0.219276
0.384904 -0.053824 0.203276
0.384904 -0.037824 0.203276
0.368904 -0.053824 0.219276
0.368904 -0.037824 0.219276
0.384904 -0.053824 0.219276
0.384904 -0.037824 0.219276
0.336904 -0.085824 0.251276
0.336904 -0.069824 0.251276
0.336904 -0.053824 0.251276
0.336904 -0.037824 0.251276
0.336904 -0.021824 0.235276
0.336904 -0.005824 0.219276
0.336904 -0.005824 0.235276
0.352904 -0.021824 0.219276
0.352904 -0.021824 0.235276
0.352904 -0.005824 0.219276
0.352904 -0.005824 0.235276
0.352904 0.026176 0.203276
0.336904 0.010176 0.219276
0.336904 0.010176 0.235276
0.336904 0.026176 0.219276
0.336904 0.026176 0.235276
0.352904 0.010176 0.219276
0.352904 0.026176 0.219276
0.368904 -0.005824 0.203276
0.384904 -0.021824 0.203276
0.384904 -0.005824 0.187276
0.384904 -0.005824 0.203276
0.368904 -0.021824 0.219276
0.368904 -0.005824 0.219276
0.368904 0.010176 0.203276
0.368904 0.026176 0.187276
0.368904 0.026176 0.203276
0.384904 0.010176 0.187276
0.384904 0.010176 0.203276
0.384904 0.026176 0.187276
0.368904 0.010176 0.219276
0.400904 -0.085824 0.187276
0.400904 -0.085824 0.203276
0.400904 -0.069824 0.187276
0.400904 -0.069824 0.203276
0.400904 -0.053824 0.187276
0.400904 -0.053824 0.203276
0.400904 -0.037824 0.187276
0.400904 -0.037824 0.203276
0.400904 -0.021824 0.187276
0.400904 -0.021824 0.203276
0.400904 -0.005824 0.187276
0.336904 0.042176 0.203276
0.336904 0.058176 0.187276
0.336904 0.058176 0.203276
0.352904 0.042176 0.187276
0.352904 0.042176 0.203276
0.352904 0.058176 0.187276
0.352904 0.058176 0.203276
0.336904 0.042176 0.219276
0.336904 0.074176 0.187276
0.336904 0.090176 0.187276
0.352904 0.074176 0.187276
0.352904 0.090176 0.187276
0.368904 0.042176 0.187276
0.368904 0.042176 0.203276
0.368904 0.058176 0.187276
0.208904 0.218176 -0.068724
0.208904 0.218176 -0.052724
0.224904 0.218176 -0.068724
0.224904 0.218176 -0.052724
0.208904 0.218176 -0.036724
0.224904 0.218176 -0.036724
0.240904 0.218176 -0.068724
0.240904 0.218176 -0.052724
0.256904 0.202176 -0.068724
0.256904 0.218176 -0.052724
0.240904 0.218176 -0.036724
0.240904 0.218176 -0.020724
0.256904 0.218176 -0.036724
0.256904 0.218176 -0.020724
0.240904 0.218176 -0.004724
0.256904 0.218176 -0.004724
0.256904 0.218176 0.011276
0.256904 0.218176 0.027276
0.256904 0.218176 0.043276
0.208904 0.234176 -0.052724
0.208904 0.234176 -0.036724
0.208904 0.234176 -0.020724
0.224904 0.234176 -0.036724
0.224904 0.234176 -0.020724
0.240904 0.234176 -0.020724
0.208904 0.234176 -0.004724
0.208904 0.234176 0.011276
0.224904 0.234176 -0.004724
0.224904 0.234176 0.011276
0.208904 0.234176 0.027276
0.208904 0.234176 0.043276
0.224904 0.234176 0.027276
0.224904 0.234176 0.043276
0.240904 0.234176 -0.004724
0.240904 0.234176 0.011276
0.256904 0.234176 0.011276
0.240904 0.234176 0.027276
0.240904 0.234176 0.043276
0.288904 0.186176 -0.068724
0.272904 0.202176 -0.068724
0.272904 0.202176 -0.052724
0.272904 0.218176 -0.052724
0.288904 0.202176 -0.068724
0.288904 0.202176 -0.052724
0.272904 0.218176 -0.036724
0.272904 0.218176 -0.020724
0.288904 0.202176 -0.036724
0.288904 0.202176 -0.020724
0.288904 0.218176 -0.020724
0.304904 0.186176 -0.068724
0.304904 0.186176 -0.052724
0.320904 0.170176 -0.068724
0.320904 0.170176 -0.052724
0.320904 0.186176 -0.068724
0.320904 0.186176 -0.052724
0.304904 0.186176 -0.036724
0.320904 0.186176 -0.036724
0.320904 0.186176 -0.020724
0.304904 0.202176 -0.052724
0.304904 0.202176 -0.036724
0.304904 0.202176 -0.020724
0.272904 0.218176 -0.004724
0.272904 0.218176 0.011276
0.288904 0.202176 -0.004724
0.288904 0.202176 0.011276
0.288904 0.218176 -0.004724
0.288904 0.218176 0.011276
0.272904 0.218176 0.027276
0.272904 0.218176 0.043276
0.288904 0.202176 0.027276
0.288904 0.202176 0.043276
0.288904 0.218176 0.027276
0.288904 0.218176 0.043276
0.320904 0.186176 -0.004724
0.320904 0.186176 0.011276
0.320904 0.186176 0.027276
0.320904 0.186176 0.043276
0.304904 0.202176 -0.004724
0.304904 0.202176 0.011276
0.320904 0.202176 -0.004724
0.320904 0.202176 0.011276
0.304904 0.202176 0.027276
0.304904 0.202176 0.043276
0.320904 0.202176 0.027276
0.320904 0.202176 0.043276
0.224904 0.218176 0.075276
0.208904 0.218176 0.091276
0.208904 0.218176 0.107276
0.224904 0.218176 0.091276
0.224904 0.218176 0.107276
0.240904 0.218176 0.059276
0.240904 0.218176 0.075276
0.256904 0.218176 0.059276
0.256904 0.218176 0.075276
0.240904 0.218176 0.091276
0.240904 0.218176 0.107276
0.256904 0.202176 0.107276
0.256904 0.218176 0.091276
0.256904 0.218176 0.107276
0.208904 0.170176 0.171276
0.208904 0.186176 0.155276
0.224904 0.170176 0.171276
0.224904 0.186176 0.155276
0.224904 0.186176 0.171276
0.208904 0.202176 0.123276
0.208904 0.202176 0.139276
0.208904 0.218176 0.123276
0.224904 0.202176 0.123276
0.224904 0.202176 0.139276
0.224904 0.218176 0.123276
0.208904 0.202176 0.155276
0.240904 0.186176 0.139276
0.256904 0.186176 0.139276
0.240904 0.170176 0.155276
0.240904 0.170176 0.171276
0.240904 0.186176 0.155276
0.256904 0.170176 0.155276
0.256904 0.170176 0.171276
0.256904 0.186176 0.155276
0.240904 0.202176 0.123276
0.240904 0.202176 0.139276
0.240904 0.218176 0.123276
0.256904 0.202176 0.123276
0.256904 0.202176 0.139276
0.208904 0.234176 0.059276
0.208904 0.234176 0.075276
0.224904 0.234176 0.059276
0.224904 0.234176 0.075276
0.208904 0.234176 0.091276
0.240904 0.234176 0.059276
0.240904 0.234176 0.075276
0.288904 0.186176 0.107276
0.272904 0.202176 0.075276
0.272904 0.218176 0.059276
0.272904 0.218176 0.075276
0.288904 0.202176 0.059276
0.288904 0.202176 0.075276
0.288904 0.218176 0.059276
0.272904 0.202176 0.091276
0.272904 0.202176 0.107276
0.272904 0.218176 0.091276
0.288904 0.202176 0.091276
0.288904 0.202176 0.107276
0.320904 0.186176 0.059276
0.320904 0.186176 0.075276
0.304904 0.186176 0.091276
0.304904 0.186176 0.107276
0.320904 0.170176 0.107276
0.320904 0.186176 0.091276
0.320904 0.186176 0.107276
0.304904 0.202176 0.059276
0.304904 0.202176 0.075276
0.320904 0.202176 0.059276
0.304904 0.202176 0.091276
0.272904 0.170176 0.139276
0.272904 0.186176 0.123276
0.272904 0.186176 0.139276
0.288904 0.170176 0.139276
0.288904 0.186176 0.123276
0.288904 0.186176 0.139276
0.272904 0.170176 0.155276
0.272904 0.186176 0.155276
0.288904 0.170176 0.155276
0.272904 0.202176 0.123276
0.304904 0.170176 0.123276
0.304904 0.170176 0.139276
0.304904 0.186176 0.123276
0.320904 0.170176 0.123276
0.320904 0.170176 0.139276
0.304904 0.170176 0.155276
0.336904 0.170176 -0.068724
0.336904 0.170176 -0.052724
0.352904 0.170176 -0.052724
0.336904 0.170176 -0.036724
0.336904 0.170176 -0.020724
0.336904 0.186176 -0.020724
0.352904 0.170176 -0.036724
0.352904 0.170176 -0.020724
0.336904 0.170176 -0.004724
0.336904 0.170176 0.011276
0.336904 0.186176 -0.004724
0.336904 0.186176 0.011276
0.352904 0.170176 -0.004724
0.352904 0.170176 0.011276
0.336904 0.170176 0.027276
0.336904 0.170176 0.043276
0.336904 0.186176 0.027276
0.336904 0.186176 0.043276
0.352904 0.170176 0.027276
0.352904 0.170176 0.043276
0.336904 0.170176 0.059276
0.336904 0.170176 0.075276
0.336904 0.186176 0.059276
0.336904 0.186176 0.075276
0.352904 0.170176 0.059276
0.352904 0.170176 0.075276
0.336904 0.170176 0.091276
0.336904 0.170176 0.107276
0.352904 0.170176 0.091276
0.336904 0.170176 0.123276
0.464904 -0.309824 -0.084724
0.464904 -0.293824 -0.084724
0.480904 -0.293824 -0.084724
0.464904 -0.277824 -0.100724
0.464904 -0.277824 -0.084724
0.464904 -0.261824 -0.100724
0.480904 -0.277824 -0.084724
0.480904 -0.261824 -0.100724
0.480904 -0.261824 -0.084724
0.464904 -0.245824 -0.100724
0.464904 -0.229824 -0.084724
0.480904 -0.245824 -0.100724
0.480904 -0.245824 -0.084724
0.480904 -0.229824 -0.084724
0.496904 -0.277824 -0.084724
0.496904 -0.261824 -0.084724
0.496904 -0.245824 -0.084724
0.496904 -0.229824 -0.084724
0.512904 -0.245824 -0.084724
0.512904 -0.229824 -0.084724
0.464904 -0.213824 -0.084724
0.480904 -0.213824 -0.084724
0.496904 -0.213824 -0.084724
0.512904 -0.213824 -0.084724
0.464904 -0.325824 -0.068724
0.464904 -0.325824 -0.052724
0.480904 -0.325824 -0.052724
0.464904 -0.341824 -0.036724
0.464904 -0.341824 -0.020724
0.480904 -0.341824 -0.020724
0.480904 -0.325824 -0.036724
0.464904 -0.309824 -0.068724
0.480904 -0.309824 -0.068724
0.480904 -0.309824 -0.052724
0.480904 -0.293824 -0.068724
0.496904 -0.325824 -0.020724
0.496904 -0.309824 -0.052724
0.496904 -0.293824 -0.068724
0.496904 -0.293824 -0.052724
0.512904 -0.293824 -0.052724
0.496904 -0.309824 -0.036724
0.496904 -0.309824 -0.020724
0.512904 -0.309824 -0.036724
0.512904 -0.309824 -0.020724
0.512904 -0.293824 -0.036724
0.464904 -0.341824 -0.004724
0.464904 -0.341824 0.011276
0.480904 -0.341824 -0.004724
0.480904 -0.341824 0.011276
0.464904 -0.341824 0.027276
0.464904 -0.341824 0.043276
0.480904 -0.341824 0.027276
0.480904 -0.341824 0.043276
0.480904 -0.325824 0.043276
0.496904 -0.325824 -0.004724
0.496904 -0.325824 0.011276
0.496904 -0.325824 0.027276
0.496904 -0.325824 0.043276
0.496904 -0.309824 -0.004724
0.512904 -0.309824 -0.004724
0.512904 -0.309824 0.011276
0.512904 -0.309824 0.027276
0.512904 -0.309824 0.043276
0.496904 -0.277824 -0.068724
0.512904 -0.277824 -0.068724
0.512904 -0.277824 -0.052724
0.512904 -0.261824 -0.068724
0.512904 -0.245824 -0.068724
0.512904 -0.229824 -0.068724
0.528904 -0.293824 -0.036724
0.528904 -0.293824 -0.020724
0.528904 -0.309824 0.011276
0.528904 -0.293824 -0.004724
0.528904 -0.293824 0.011276
0.528904 -0.309824 0.027276
0.528904 -0.309824 0.043276
0.528904 -0.293824 0.027276
0.528904 -0.293824 0.043276
0.528904 -0.277824 -0.052724
0.528904 -0.261824 -0.052724
0.528904 -0.277824 -0.036724
0.528904 -0.277824 -0.020724
0.528904 -0.261824 -0.036724
0.544904 -0.277824 -0.020724
0.544904 -0.261824 -0.036724
0.544904 -0.261824 -0.020724
0.528904 -0.245824 -0.068724
0.528904 -0.245824 -0.052724
0.528904 -0.229824 -0.068724
0.528904 -0.229824 -0.052724
0.544904 -0.229824 -0.052724
0.528904 -0.245824 -0.036724
0.544904 -0.245824 -0.036724
0.544904 -0.245824 -0.020724
0.544904 -0.229824 -0.036724
0.544904 -0.229824 -0.020724
0.560904 -0.229824 -0.020724
0.528904 -0.277824 -0.004724
0.544904 -0.277824 -0.004724
0.544904 -0.277824 0.011276
0.544904 -0.261824 -0.004724
0.544904 -0.261824 0.011276
0.544904 -0.277824 0.027276
0.544904 -0.277824 0.043276
0.544904 -0.261824 0.027276
0.544904 -0.261824 0.043276
0.544904 -0.245824 -0.004724
0.560904 -0.245824 -0.004724
0.560904 -0.245824 0.011276
0.560904 -0.229824 -0.004724
0.560904 -0.229824 0.011276
0.560904 -0.245824 0.027276
0.560904 -0.245824 0.043276
0.560904 -0.229824 0.027276
0.560904 -0.229824 0.043276
0.464904 -0.341824 0.059276
0.464904 -0.341824 0.075276
0.480904 -0.341824 0.059276
0.480904 -0.325824 0.059276
0.480904 -0.325824 0.075276
0.464904 -0.341824 0.091276
0.464904 -0.325824 0.091276
0.464904 -0.325824 0.107276
0.480904 -0.325824 0.091276
0.480904 -0.325824 0.107276
0.464904 -0.309824 0.107276
0.480904 -0.309824 0.091276
0.480904 -0.309824 0.107276
0.480904 -0.293824 0.107276
0.496904 -0.325824 0.059276
0.496904 -0.325824 0.075276
0.496904 -0.325824 0.091276
0.496904 -0.309824 0.075276
0.512904 -0.309824 0.059276
0.512904 -0.309824 0.075276
0.512904 -0.293824 0.075276
0.496904 -0.309824 0.091276
0.496904 -0.309824 0.107276
0.496904 -0.293824 0.107276
0.512904 -0.309824 0.091276
0.512904 -0.293824 0.091276
0.464904 -0.325824 0.123276
0.464904 -0.309824 0.123276
0.464904 -0.293824 0.123276
0.464904 -0.293824 0.139276
0.480904 -0.309824 0.123276
0.480904 -0.293824 0.123276
0.480904 -0.293824 0.139276
0.496904 -0.293824 0.123276
0.496904 -0.277824 0.107276
0.512904 -0.277824 0.091276
0.512904 -0.277824 0.107276
0.512904 -0.261824 0.107276
0.464904 -0.277824 0.139276
0.480904 -0.277824 0.123276
0.480904 -0.277824 0.139276
0.480904 -0.261824 0.139276
0.464904 -0.277824 0.155276
0.464904 -0.261824 0.155276
0.464904 -0.229824 0.139276
0.480904 -0.245824 0.139276
0.480904 -0.229824 0.139276
0.464904 -0.245824 0.155276
0.464904 -0.229824 0.155276
0.496904 -0.277824 0.123276
0.496904 -0.261824 0.123276
0.496904 -0.261824 0.139276
0.512904 -0.277824 0.123276
0.512904 -0.261824 0.123276
0.496904 -0.245824 0.139276
0.496904 -0.229824 0.139276
0.512904 -0.245824 0.123276
0.512904 -0.229824 0.123276
0.512904 -0.229824 0.139276
0.528904 -0.293824 0.059276
0.528904 -0.293824 0.075276
0.528904 -0.277824 0.059276
0.528904 -0.277824 0.075276
0.544904 -0.277824 0.059276
0.544904 -0.277824 0.075276
0.544904 -0.261824 0.059276
0.544904 -0.261824 0.075276
0.528904 -0.277824 0.091276
0.528904 -0.277824 0.107276
0.528904 -0.261824 0.091276
0.528904 -0.261824 0.107276
0.544904 -0.261824 0.091276
0.544904 -0.245824 0.059276
0.544904 -0.245824 0.075276
0.544904 -0.229824 0.075276
0.528904 -0.245824 0.091276
0.528904 -0.245824 0.107276
0.528904 -0.229824 0.107276
0.544904 -0.245824 0.091276
0.544904 -0.229824 0.091276
0.544904 -0.229824 0.107276
0.560904 -0.245824 0.059276
0.560904 -0.229824 0.059276
0.560904 -0.229824 0.075276
0.528904 -0.245824 0.123276
0.528904 -0.229824 0.123276
0.464904 -0.213824 -0.068724
0.464904 -0.197824 -0.068724
0.480904 -0.213824 -0.068724
0.480904 -0.197824 -0.068724
0.464904 -0.181824 -0.052724
0.464904 -0.165824 -0.052724
0.480904 -0.181824 -0.052724
0.480904 -0.165824 -0.052724
0.464904 -0.165824 -0.036724
0.480904 -0.165824 -0.036724
0.496904 -0.213824 -0.068724
0.496904 -0.197824 -0.068724
0.512904 -0.213824 -0.068724
0.512904 -0.197824 -0.068724
0.512904 -0.197824 -0.052724
0.496904 -0.181824 -0.052724
0.496904 -0.165824 -0.052724
0.512904 -0.181824 -0.052724
0.512904 -0.165824 -0.052724
0.496904 -0.165824 -0.036724
0.512904 -0.165824 -0.036724
0.464904 -0.149824 -0.052724
0.464904 -0.133824 -0.068724
0.464904 -0.133824 -0.052724
0.464904 -0.149824 -0.036724
0.464904 -0.149824 -0.020724
0.464904 -0.133824 -0.036724
0.464904 -0.133824 -0.020724
0.480904 -0.149824 -0.020724
0.464904 -0.117824 -0.068724
0.464904 -0.117824 -0.052724
0.464904 -0.101824 -0.068724
0.464904 -0.101824 -0.052724
0.464904 -0.117824 -0.036724
0.464904 -0.117824 -0.020724
0.464904 -0.101824 -0.036724
0.464904 -0.101824 -0.020724
0.496904 -0.149824 -0.020724
0.512904 -0.149824 -0.020724
0.464904 -0.133824 -0.004724
0.464904 -0.133824 0.011276
0.480904 -0.149824 -0.004724
0.480904 -0.149824 0.011276
0.480904 -0.133824 -0.004724
0.480904 -0.133824 0.011276
0.464904 -0.133824 0.027276
0.464904 -0.133824 0.043276
0.480904 -0.149824 0.043276
0.480904 -0.133824 0.027276
0.480904 -0.133824 0.043276
0.464904 -0.117824 -0.004724
0.464904 -0.117824 0.011276
0.464904 -0.101824 -0.004724
0.464904 -0.101824 0.011276
0.464904 -0.117824 0.027276
0.464904 -0.117824 0.043276
0.464904 -0.101824 0.027276
0.464904 -0.101824 0.043276
0.496904 -0.149824 -0.004724
0.496904 -0.149824 0.011276
0.496904 -0.133824 0.011276
0.512904 -0.149824 -0.004724
0.512904 -0.133824 0.011276
0.496904 -0.133824 0.027276
0.496904 -0.133824 0.043276
0.512904 -0.133824 0.027276
0.512904 -0.133824 0.043276
0.528904 -0.213824 -0.068724
0.528904 -0.213824 -0.052724
0.528904 -0.197824 -0.052724
0.544904 -0.197824 -0.052724
0.544904 -0.213824 -0.036724
0.544904 -0.197824 -0.036724
0.544904 -0.197824 -0.020724
0.528904 -0.181824 -0.052724
0.528904 -0.181824 -0.036724
0.528904 -0.165824 -0.036724
0.528904 -0.165824 -0.020724
0.544904 -0.181824 -0.036724
0.544904 -0.181824 -0.020724
0.544904 -0.165824 -0.036724
0.544904 -0.165824 -0.020724
0.560904 -0.213824 -0.020724
0.560904 -0.197824 -0.020724
0.544904 -0.181824 -0.004724
0.544904 -0.165824 -0.004724
0.544904 -0.165824 0.011276
0.544904 -0.165824 0.027276
0.544904 -0.165824 0.043276
0.560904 -0.213824 -0.004724
0.560904 -0.213824 0.011276
0.560904 -0.197824 -0.004724
0.560904 -0.197824 0.011276
0.560904 -0.213824 0.027276
0.560904 -0.213824 0.043276
0.560904 -0.197824 0.027276
0.560904 -0.197824 0.043276
0.560904 -0.181824 -0.004724
0.560904 -0.181824 0.011276
0.560904 -0.165824 0.011276
0.560904 -0.181824 0.027276
0.560904 -0.181824 0.043276
0.560904 -0.165824 0.027276
0.560904 -0.165824 0.043276
0.528904 -0.149824 -0.020724
0.528904 -0.149824 -0.004724
0.528904 -0.149824 0.011276
0.528904 -0.133824 0.011276
0.544904 -0.149824 -0.004724
0.544904 -0.149824 0.011276
0.528904 -0.149824 0.027276
0.528904 -0.149824 0.043276
0.528904 -0.133824 0.027276
0.528904 -0.133824 0.043276
0.544904 -0.149824 0.027276
0.544904 -0.149824 0.043276
0.464904 -0.181824 0.107276
0.464904 -0.165824 0.091276
0.464904 -0.165824 0.107276
0.480904 -0.181824 0.107276
0.480904 -0.165824 0.091276
0.480904 -0.165824 0.107276
0.496904 -0.181824 0.107276
0.496904 -0.165824 0.091276
0.496904 -0.165824 0.107276
0.512904 -0.181824 0.107276
0.512904 -0.165824 0.091276
0.512904 -0.165824 0.107276
0.464904 -0.213824 0.139276
0.464904 -0.197824 0.123276
0.480904 -0.213824 0.139276
0.480904 -0.197824 0.123276
0.480904 -0.197824 0.139276
0.464904 -0.181824 0.123276
0.480904 -0.181824 0.123276
0.496904 -0.213824 0.139276
0.496904 -0.197824 0.123276
0.512904 -0.213824 0.123276
0.512904 -0.213824 0.139276
0.512904 -0.197824 0.123276
0.496904 -0.181824 0.123276
0.512904 -0.181824 0.123276
0.464904 -0.149824 0.059276
0.464904 -0.149824 0.075276
0.464904 -0.133824 0.059276
0.464904 -0.133824 0.075276
0.480904 -0.149824 0.059276
0.480904 -0.149824 0.075276
0.464904 -0.149824 0.091276
0.464904 -0.133824 0.091276
0.480904 -0.149824 0.091276
0.464904 -0.117824 0.059276
0.464904 -0.117824 0.075276
0.464904 -0.101824 0.059276
0.464904 -0.101824 0.075276
0.464904 -0.117824 0.091276
0.464904 -0.101824 0.091276
0.496904 -0.149824 0.059276
0.496904 -0.149824 0.075276
0.512904 -0.149824 0.059276
0.512904 -0.149824 0.075276
0.512904 -0.133824 0.059276
0.496904 -0.149824 0.091276
0.512904 -0.149824 0.091276
0.544904 -0.213824 0.075276
0.544904 -0.197824 0.075276
0.528904 -0.213824 0.107276
0.528904 -0.197824 0.107276
0.544904 -0.213824 0.091276
0.544904 -0.213824 0.107276
0.544904 -0.197824 0.091276
0.544904 -0.197824 0.107276
0.528904 -0.165824 0.075276
0.544904 -0.181824 0.075276
0.544904 -0.165824 0.059276
0.544904 -0.165824 0.075276
0.528904 -0.181824 0.091276
0.528904 -0.181824 0.107276
0.528904 -0.165824 0.091276
0.528904 -0.165824 0.107276
0.544904 -0.181824 0.091276
0.544904 -0.165824 0.091276
0.560904 -0.213824 0.059276
0.560904 -0.213824 0.075276
0.560904 -0.197824 0.059276
0.560904 -0.197824 0.075276
0.560904 -0.181824 0.059276
0.560904 -0.181824 0.075276
0.560904 -0.165824 0.059276
0.528904 -0.213824 0.123276
0.528904 -0.197824 0.123276
0.528904 -0.149824 0.059276
0.528904 -0.149824 0.075276
0.544904 -0.149824 0.059276
0.528904 -0.149824 0.091276
0.464904 -0.085824 -0.052724
0.464904 -0.069824 -0.068724
0.464904 -0.069824 -0.052724
0.464904 -0.085824 -0.036724
0.464904 -0.085824 -0.020724
0.464904 -0.069824 -0.036724
0.464904 -0.069824 -0.020724
0.464904 -0.053824 -0.068724
0.464904 -0.053824 -0.052724
0.464904 -0.037824 -0.068724
0.464904 -0.037824 -0.052724
0.464904 -0.053824 -0.036724
0.464904 -0.053824 -0.020724
0.464904 -0.037824 -0.036724
0.464904 -0.037824 -0.020724
0.464904 -0.085824 -0.004724
0.464904 -0.085824 0.011276
0.464904 -0.069824 -0.004724
0.464904 -0.069824 0.011276
0.464904 -0.085824 0.027276
0.464904 -0.085824 0.043276
0.464904 -0.069824 0.027276
0.464904 -0.069824 0.043276
0.464904 -0.053824 -0.004724
0.464904 -0.053824 0.011276
0.464904 -0.037824 -0.004724
0.464904 -0.037824 0.011276
0.464904 -0.053824 0.027276
0.464904 -0.053824 0.043276
0.464904 -0.037824 0.027276
0.464904 -0.037824 0.043276
0.464904 -0.021824 -0.052724
0.464904 -0.005824 -0.052724
0.464904 -0.021824 -0.036724
0.464904 -0.021824 -0.020724
0.464904 -0.005824 -0.036724
0.464904 -0.005824 -0.020724
0.464904 0.010176 -0.020724
0.464904 -0.021824 -0.004724
0.464904 -0.021824 0.011276
0.464904 -0.005824 -0.004724
0.464904 -0.005824 0.011276
0.464904 -0.021824 0.027276
0.464904 -0.021824 0.043276
0.464904 -0.005824 0.027276
0.464904 -0.005824 0.043276
0.464904 0.010176 -0.004724
0.464904 0.010176 0.011276
0.464904 0.010176 0.027276
0.464904 -0.085824 0.059276
0.464904 -0.085824 0.075276
0.464904 -0.069824 0.059276
0.464904 -0.069824 0.075276
0.464904 -0.085824 0.091276
0.464904 -0.069824 0.091276
0.464904 -0.053824 0.059276
0.464904 -0.053824 0.075276
0.464904 -0.037824 0.059276
0.464904 -0.037824 0.075276
0.464904 -0.053824 0.091276
0.464904 -0.037824 0.091276
0.464904 -0.021824 0.059276
0.464904 -0.021824 0.075276
0.464904 -0.005824 0.059276
-0.319096 0.474176 -0.340724
-0.319096 0.538176 -0.404724
-0.335096 0.506176 -0.372724
-0.319096 0.506176 -0.372724
-0.335096 0.490176 -0.340724
-0.335096 0.506176 -0.356724
-0.335096 0.506176 -0.340724
-0.319096 0.490176 -0.356724
-0.319096 0.490176 -0.340724
-0.319096 0.506176 -0.340724
-0.335096 0.522176 -0.372724
-0.335096 0.538176 -0.372724
-0.319096 0.522176 -0.388724
-0.319096 0.538176 -0.388724
-0.319096 0.538176 -0.372724
-0.335096 0.522176 -0.356724
-0.335096 0.522176 -0.340724
-0.319096 0.522176 -0.356724
-0.319096 0.522176 -0.340724
-0.319096 0.538176 -0.356724
-0.335096 0.442176 -0.276724
-0.319096 0.426176 -0.276724
-0.319096 0.442176 -0.292724
-0.319096 0.442176 -0.276724
-0.335096 0.474176 -0.324724
-0.335096 0.474176 -0.308724
-0.319096 0.458176 -0.308724
-0.319096 0.474176 -0.324724
-0.335096 0.458176 -0.292724
-0.335096 0.458176 -0.276724
-0.335096 0.474176 -0.292724
-0.335096 0.474176 -0.276724
-0.319096 0.474176 -0.276724
-0.335096 0.426176 -0.244724
-0.335096 0.442176 -0.260724
-0.335096 0.442176 -0.244724
-0.319096 0.426176 -0.260724
-0.319096 0.426176 -0.244724
-0.335096 0.426176 -0.228724
-0.335096 0.426176 -0.212724
-0.335096 0.442176 -0.228724
-0.335096 0.442176 -0.212724
-0.319096 0.442176 -0.212724
-0.335096 0.458176 -0.260724
-0.335096 0.458176 -0.244724
-0.335096 0.474176 -0.260724
-0.319096 0.458176 -0.244724
-0.319096 0.474176 -0.260724
-0.319096 0.474176 -0.244724
-0.335096 0.458176 -0.228724
-0.319096 0.458176 -0.228724
-0.319096 0.458176 -0.212724
-0.319096 0.474176 -0.228724
-0.319096 0.474176 -0.212724
-0.335096 0.490176 -0.324724
-0.335096 0.490176 -0.308724
-0.335096 0.506176 -0.324724
-0.319096 0.490176 -0.308724
-0.319096 0.506176 -0.324724
-0.319096 0.506176 -0.308724
-0.319096 0.490176 -0.292724
-0.319096 0.490176 -0.276724
-0.319096 0.522176 -0.324724
-0.319096 0.490176 -0.260724
-0.335096 0.426176 -0.196724
-0.335096 0.426176 -0.180724
-0.319096 0.426176 -0.180724
-0.319096 0.442176 -0.196724
-0.319096 0.442176 -0.180724
-0.319096 0.426176 -0.164724
-0.319096 0.426176 -0.148724
-0.319096 0.442176 -0.164724
-0.319096 0.426176 -0.132724
-0.255096 0.426176 -0.436724
-0.255096 0.442176 -0.436724
-0.271096 0.426176 -0.404724
-0.271096 0.442176 -0.404724
-0.255096 0.426176 -0.420724
-0.255096 0.442176 -0.420724
-0.255096 0.458176 -0.436724
-0.255096 0.474176 -0.436724
-0.271096 0.458176 -0.404724
-0.271096 0.474176 -0.404724
-0.255096 0.458176 -0.420724
-0.255096 0.474176 -0.420724
-0.287096 0.442176 -0.372724
-0.287096 0.426176 -0.356724
-0.287096 0.426176 -0.340724
-0.287096 0.442176 -0.356724
-0.287096 0.442176 -0.340724
-0.287096 0.458176 -0.372724
-0.287096 0.474176 -0.388724
-0.287096 0.474176 -0.372724
-0.303096 0.458176 -0.340724
-0.303096 0.474176 -0.356724
-0.303096 0.474176 -0.340724
-0.287096 0.458176 -0.356724
-0.287096 0.458176 -0.340724
-0.287096 0.474176 -0.356724
-0.271096 0.426176 -0.388724
-0.271096 0.426176 -0.372724
-0.271096 0.442176 -0.388724
-0.271096 0.442176 -0.372724
-0.271096 0.458176 -0.388724
-0.271096 0.458176 -0.372724
-0.271096 0.474176 -0.388724
-0.287096 0.490176 -0.404724
-0.287096 0.506176 -0.404724
-0.303096 0.522176 -0.404724
-0.303096 0.538176 -0.404724
