ply
format ascii 1.0
element vertex 1694
property float x
property float y
property float z
end_header
0.485404 -0.171324 -0.046224
0.485404 -0.164324 -0.039224
0.492404 -0.171324 -0.046224
0.492404 -0.164324 -0.039224
0.485404 -0.157324 -0.032224
0.485404 -0.157324 -0.025224
0.492404 -0.157324 -0.032224
0.492404 -0.157324 -0.025224
0.471404 -0.143324 -0.025224
0.471404 -0.136324 -0.032224
0.471404 -0.129324 -0.025224
0.471404 -0.122324 -0.025224
0.478404 -0.150324 -0.018224
0.485404 -0.150324 -0.018224
0.485404 -0.150324 -0.011224
0.492404 -0.150324 -0.018224
0.492404 -0.150324 -0.011224
0.471404 -0.143324 -0.011224
0.471404 -0.136324 -0.018224
0.478404 -0.143324 -0.011224
0.471404 -0.136324 -0.004224
0.471404 -0.136324 0.002776
0.478404 -0.143324 0.002776
0.471404 -0.129324 -0.018224
0.471404 -0.129324 -0.011224
0.471404 -0.122324 -0.018224
0.471404 -0.122324 -0.011224
0.471404 -0.129324 -0.004224
0.471404 -0.129324 0.002776
0.471404 -0.122324 -0.004224
0.471404 -0.122324 0.002776
0.485404 -0.143324 -0.004224
0.485404 -0.143324 0.002776
0.492404 -0.143324 0.002776
0.478404 -0.143324 0.016776
0.478404 -0.136324 0.009776
0.471404 -0.136324 0.023776
0.471404 -0.136324 0.030776
0.478404 -0.136324 0.023776
0.478404 -0.136324 0.030776
0.471404 -0.129324 0.009776
0.471404 -0.122324 0.009776
0.471404 -0.122324 0.016776
0.471404 -0.129324 0.023776
0.471404 -0.122324 0.023776
0.471404 -0.122324 0.030776
0.485404 -0.143324 0.016776
0.492404 -0.143324 0.009776
0.485404 -0.143324 0.023776
0.492404 -0.143324 0.030776
0.492404 -0.136324 0.023776
0.450404 -0.094324 -0.074224
0.457404 -0.115324 -0.074224
0.457404 -0.115324 -0.067224
0.457404 -0.115324 -0.060224
0.464404 -0.115324 -0.053224
0.457404 -0.101324 -0.074224
0.457404 -0.101324 -0.067224
0.457404 -0.094324 -0.067224
0.457404 -0.101324 -0.060224
0.457404 -0.094324 -0.060224
0.464404 -0.101324 -0.053224
0.464404 -0.094324 -0.053224
0.464404 -0.115324 -0.046224
0.464404 -0.115324 -0.039224
0.464404 -0.108324 -0.032224
0.464404 -0.108324 -0.025224
0.464404 -0.101324 -0.046224
0.464404 -0.101324 -0.039224
0.464404 -0.094324 -0.046224
0.464404 -0.094324 -0.039224
0.464404 -0.101324 -0.032224
0.464404 -0.094324 -0.032224
0.450404 -0.087324 -0.074224
0.450404 -0.080324 -0.074224
0.457404 -0.087324 -0.067224
0.457404 -0.080324 -0.067224
0.457404 -0.087324 -0.060224
0.457404 -0.087324 -0.053224
0.464404 -0.087324 -0.053224
0.457404 -0.066324 -0.074224
0.457404 -0.066324 -0.067224
0.457404 -0.073324 -0.060224
0.457404 -0.073324 -0.053224
0.457404 -0.066324 -0.060224
0.457404 -0.066324 -0.053224
0.464404 -0.087324 -0.046224
0.464404 -0.087324 -0.039224
0.464404 -0.087324 -0.032224
0.464404 -0.087324 -0.025224
0.457404 -0.073324 -0.046224
0.457404 -0.066324 -0.046224
0.464404 -0.073324 -0.046224
0.464404 -0.073324 -0.039224
0.464404 -0.066324 -0.039224
0.464404 -0.073324 -0.032224
0.464404 -0.073324 -0.025224
0.464404 -0.066324 -0.032224
0.464404 -0.066324 -0.025224
0.471404 -0.101324 -0.025224
0.471404 -0.094324 -0.025224
0.464404 -0.073324 -0.018224
0.464404 -0.066324 -0.018224
0.464404 -0.066324 -0.011224
0.464404 -0.066324 -0.004224
0.464404 -0.087324 0.030776
0.464404 -0.066324 0.009776
0.464404 -0.066324 0.016776
0.464404 -0.073324 0.023776
0.464404 -0.073324 0.030776
0.464404 -0.066324 0.023776
0.464404 -0.066324 0.030776
0.471404 -0.108324 -0.018224
0.471404 -0.108324 -0.011224
0.471404 -0.108324 -0.004224
0.471404 -0.108324 0.002776
0.471404 -0.101324 -0.018224
0.471404 -0.101324 -0.011224
0.471404 -0.094324 -0.018224
0.471404 -0.094324 -0.011224
0.471404 -0.101324 -0.004224
0.471404 -0.101324 0.002776
0.471404 -0.094324 -0.004224
0.471404 -0.094324 0.002776
0.471404 -0.108324 0.009776
0.471404 -0.108324 0.016776
0.471404 -0.115324 0.030776
0.471404 -0.108324 0.023776
0.471404 -0.108324 0.030776
0.471404 -0.101324 0.009776
0.471404 -0.101324 0.016776
0.471404 -0.094324 0.009776
0.471404 -0.094324 0.016776
0.471404 -0.101324 0.023776
0.471404 -0.101324 0.030776
0.471404 -0.094324 0.023776
0.471404 -0.094324 0.030776
0.471404 -0.087324 -0.018224
0.471404 -0.087324 -0.011224
0.471404 -0.087324 -0.004224
0.471404 -0.087324 0.002776
0.471404 -0.073324 -0.011224
0.471404 -0.073324 -0.004224
0.471404 -0.073324 0.002776
0.471404 -0.066324 0.002776
0.471404 -0.087324 0.009776
0.471404 -0.087324 0.016776
0.471404 -0.087324 0.023776
0.471404 -0.073324 0.009776
0.471404 -0.073324 0.016776
0.436404 -0.171324 0.128776
0.436404 -0.171324 0.135776
0.436404 -0.171324 0.142776
0.436404 -0.164324 0.135776
0.436404 -0.164324 0.142776
0.436404 -0.157324 0.135776
0.436404 -0.157324 0.142776
0.436404 -0.143324 0.135776
0.436404 -0.143324 0.142776
0.436404 -0.136324 0.135776
0.436404 -0.136324 0.142776
0.436404 -0.129324 0.135776
0.436404 -0.129324 0.142776
0.436404 -0.122324 0.135776
0.436404 -0.122324 0.142776
0.436404 -0.108324 0.135776
0.436404 -0.108324 0.142776
0.436404 -0.101324 0.135776
0.436404 -0.101324 0.142776
0.436404 -0.094324 0.135776
0.436404 -0.094324 0.142776
0.436404 -0.087324 0.135776
0.436404 -0.087324 0.142776
0.436404 -0.073324 0.135776
0.436404 -0.073324 0.142776
0.436404 -0.066324 0.135776
0.436404 -0.066324 0.142776
0.464404 -0.150324 0.072776
0.464404 -0.157324 0.086776
0.464404 -0.143324 0.072776
0.457404 -0.136324 0.086776
0.464404 -0.143324 0.086776
0.464404 -0.129324 0.065776
0.464404 -0.129324 0.072776
0.464404 -0.122324 0.072776
0.457404 -0.129324 0.086776
0.464404 -0.129324 0.079776
0.464404 -0.122324 0.079776
0.464404 -0.122324 0.086776
0.478404 -0.150324 0.058776
0.471404 -0.150324 0.065776
0.478404 -0.150324 0.072776
0.471404 -0.157324 0.079776
0.471404 -0.157324 0.086776
0.478404 -0.157324 0.079776
0.485404 -0.150324 0.065776
0.485404 -0.150324 0.072776
0.485404 -0.157324 0.086776
0.492404 -0.150324 0.079776
0.492404 -0.150324 0.086776
0.471404 -0.136324 0.037776
0.478404 -0.143324 0.044776
0.471404 -0.143324 0.058776
0.471404 -0.136324 0.051776
0.471404 -0.136324 0.058776
0.478404 -0.143324 0.051776
0.471404 -0.129324 0.037776
0.471404 -0.122324 0.037776
0.471404 -0.122324 0.051776
0.471404 -0.122324 0.058776
0.485404 -0.143324 0.037776
0.485404 -0.143324 0.044776
0.492404 -0.143324 0.037776
0.492404 -0.143324 0.044776
0.485404 -0.143324 0.058776
0.492404 -0.143324 0.058776
0.471404 -0.143324 0.065776
0.471404 -0.122324 0.065776
0.492404 -0.143324 0.065776
0.450404 -0.171324 0.114776
0.450404 -0.164324 0.107776
0.450404 -0.164324 0.114776
0.450404 -0.157324 0.107776
0.450404 -0.157324 0.114776
0.450404 -0.150324 0.107776
0.457404 -0.164324 0.100776
0.464404 -0.171324 0.100776
0.464404 -0.164324 0.093776
0.464404 -0.171324 0.107776
0.457404 -0.157324 0.093776
0.457404 -0.157324 0.100776
0.457404 -0.150324 0.093776
0.457404 -0.150324 0.100776
0.443404 -0.171324 0.121776
0.443404 -0.164324 0.121776
0.443404 -0.164324 0.128776
0.443404 -0.157324 0.121776
0.443404 -0.157324 0.128776
0.450404 -0.143324 0.114776
0.450404 -0.136324 0.107776
0.450404 -0.136324 0.114776
0.450404 -0.129324 0.107776
0.450404 -0.129324 0.114776
0.450404 -0.122324 0.107776
0.450404 -0.122324 0.114776
0.457404 -0.136324 0.093776
0.457404 -0.136324 0.100776
0.457404 -0.129324 0.093776
0.457404 -0.129324 0.100776
0.457404 -0.122324 0.093776
0.457404 -0.122324 0.100776
0.443404 -0.143324 0.121776
0.443404 -0.143324 0.128776
0.443404 -0.136324 0.121776
0.443404 -0.136324 0.128776
0.443404 -0.129324 0.121776
0.443404 -0.129324 0.128776
0.443404 -0.122324 0.121776
0.443404 -0.122324 0.128776
0.471404 -0.164324 0.093776
0.478404 -0.164324 0.100776
0.478404 -0.171324 0.107776
0.478404 -0.157324 0.093776
0.485404 -0.164324 0.100776
0.492404 -0.164324 0.100776
0.492404 -0.164324 0.107776
0.485404 -0.157324 0.093776
0.492404 -0.157324 0.093776
0.464404 -0.094324 0.051776
0.464404 -0.094324 0.058776
0.464404 -0.115324 0.072776
0.464404 -0.108324 0.072776
0.464404 -0.115324 0.079776
0.464404 -0.115324 0.086776
0.464404 -0.108324 0.079776
0.464404 -0.094324 0.065776
0.464404 -0.094324 0.072776
0.464404 -0.101324 0.079776
0.464404 -0.094324 0.079776
0.464404 -0.094324 0.086776
0.464404 -0.087324 0.037776
0.464404 -0.087324 0.044776
0.464404 -0.087324 0.051776
0.464404 -0.087324 0.058776
0.464404 -0.073324 0.037776
0.464404 -0.073324 0.044776
0.464404 -0.066324 0.037776
0.464404 -0.066324 0.044776
0.464404 -0.073324 0.051776
0.464404 -0.073324 0.058776
0.464404 -0.066324 0.051776
0.464404 -0.066324 0.058776
0.464404 -0.087324 0.065776
0.464404 -0.087324 0.072776
0.464404 -0.087324 0.079776
0.464404 -0.087324 0.086776
0.464404 -0.073324 0.065776
0.464404 -0.073324 0.072776
0.464404 -0.066324 0.065776
0.464404 -0.066324 0.072776
0.464404 -0.073324 0.079776
0.464404 -0.073324 0.086776
0.464404 -0.066324 0.079776
0.464404 -0.066324 0.086776
0.471404 -0.108324 0.044776
0.471404 -0.115324 0.051776
0.471404 -0.108324 0.051776
0.471404 -0.101324 0.037776
0.471404 -0.101324 0.044776
0.471404 -0.094324 0.037776
0.471404 -0.094324 0.044776
0.471404 -0.101324 0.051776
0.471404 -0.115324 0.065776
0.471404 -0.108324 0.065776
0.450404 -0.115324 0.107776
0.450404 -0.115324 0.114776
0.450404 -0.101324 0.114776
0.450404 -0.094324 0.107776
0.450404 -0.094324 0.114776
0.457404 -0.115324 0.100776
0.457404 -0.101324 0.100776
0.457404 -0.094324 0.100776
0.464404 -0.101324 0.093776
0.464404 -0.094324 0.093776
0.457404 -0.094324 0.107776
0.443404 -0.108324 0.121776
0.443404 -0.108324 0.128776
0.443404 -0.101324 0.121776
0.443404 -0.101324 0.128776
0.443404 -0.094324 0.121776
0.443404 -0.094324 0.128776
0.450404 -0.087324 0.107776
0.450404 -0.080324 0.114776
0.450404 -0.066324 0.107776
0.450404 -0.066324 0.114776
0.457404 -0.087324 0.093776
0.457404 -0.087324 0.100776
0.457404 -0.073324 0.093776
0.457404 -0.073324 0.100776
0.457404 -0.066324 0.093776
0.457404 -0.066324 0.100776
0.443404 -0.087324 0.121776
0.443404 -0.087324 0.128776
0.443404 -0.080324 0.128776
0.450404 -0.087324 0.121776
0.450404 -0.080324 0.121776
0.443404 -0.066324 0.128776
0.450404 -0.066324 0.121776
0.499404 -0.276324 -0.074224
0.506404 -0.276324 -0.067224
0.499404 -0.269324 -0.074224
0.506404 -0.262324 -0.074224
0.513404 -0.276324 -0.060224
0.520404 -0.276324 -0.053224
0.513404 -0.269324 -0.067224
0.513404 -0.262324 -0.067224
0.513404 -0.269324 -0.060224
0.520404 -0.269324 -0.053224
0.520404 -0.262324 -0.060224
0.520404 -0.262324 -0.053224
0.513404 -0.283324 -0.046224
0.520404 -0.283324 -0.046224
0.513404 -0.248324 -0.074224
0.520404 -0.248324 -0.067224
0.520404 -0.248324 -0.060224
0.513404 -0.241324 -0.074224
0.513404 -0.234324 -0.074224
0.520404 -0.241324 -0.067224
0.520404 -0.234324 -0.067224
0.527404 -0.283324 -0.039224
0.527404 -0.276324 -0.046224
0.527404 -0.276324 -0.039224
0.527404 -0.283324 -0.032224
0.534404 -0.283324 -0.025224
0.534404 -0.276324 -0.032224
0.534404 -0.276324 -0.025224
0.527404 -0.269324 -0.046224
0.534404 -0.269324 -0.039224
0.534404 -0.269324 -0.032224
0.541404 -0.269324 -0.025224
0.527404 -0.248324 -0.053224
0.534404 -0.248324 -0.053224
0.527404 -0.241324 -0.060224
0.527404 -0.241324 -0.053224
0.527404 -0.234324 -0.060224
0.534404 -0.241324 -0.053224
0.534404 -0.234324 -0.053224
0.527404 -0.255324 -0.046224
0.534404 -0.255324 -0.046224
0.534404 -0.255324 -0.039224
0.534404 -0.248324 -0.046224
0.541404 -0.248324 -0.039224
0.541404 -0.255324 -0.032224
0.541404 -0.255324 -0.025224
0.541404 -0.248324 -0.032224
0.548404 -0.248324 -0.025224
0.541404 -0.241324 -0.046224
0.541404 -0.241324 -0.039224
0.541404 -0.234324 -0.046224
0.548404 -0.241324 -0.032224
0.548404 -0.241324 -0.025224
0.534404 -0.283324 -0.018224
0.534404 -0.283324 -0.011224
0.534404 -0.283324 -0.004224
0.534404 -0.283324 0.002776
0.541404 -0.276324 -0.018224
0.541404 -0.276324 -0.011224
0.541404 -0.276324 -0.004224
0.541404 -0.276324 0.002776
0.541404 -0.269324 -0.018224
0.541404 -0.269324 -0.011224
0.548404 -0.269324 -0.004224
0.548404 -0.269324 0.002776
0.541404 -0.283324 0.009776
0.541404 -0.283324 0.016776
0.541404 -0.276324 0.009776
0.541404 -0.276324 0.016776
0.541404 -0.283324 0.023776
0.541404 -0.283324 0.030776
0.548404 -0.276324 0.023776
0.548404 -0.276324 0.030776
0.548404 -0.269324 0.009776
0.548404 -0.262324 0.016776
0.548404 -0.269324 0.023776
0.548404 -0.262324 0.023776
0.548404 -0.262324 0.030776
0.541404 -0.255324 -0.018224
0.548404 -0.255324 -0.011224
0.548404 -0.248324 -0.018224
0.548404 -0.248324 -0.011224
0.548404 -0.255324 -0.004224
0.548404 -0.255324 0.002776
0.548404 -0.248324 -0.004224
0.548404 -0.241324 -0.018224
0.548404 -0.255324 0.009776
0.548404 -0.255324 0.016776
0.499404 -0.206324 -0.074224
0.506404 -0.213324 -0.074224
0.513404 -0.220324 -0.074224
0.520404 -0.227324 -0.067224
0.520404 -0.220324 -0.074224
0.513404 -0.213324 -0.074224
0.513404 -0.206324 -0.067224
0.520404 -0.213324 -0.067224
0.520404 -0.206324 -0.060224
0.499404 -0.199324 -0.074224
0.499404 -0.199324 -0.067224
0.499404 -0.192324 -0.067224
0.506404 -0.199324 -0.067224
0.506404 -0.192324 -0.067224
0.506404 -0.192324 -0.060224
0.499404 -0.185324 -0.060224
0.499404 -0.178324 -0.053224
0.506404 -0.185324 -0.060224
0.506404 -0.178324 -0.053224
0.513404 -0.199324 -0.060224
0.513404 -0.192324 -0.053224
0.520404 -0.199324 -0.060224
0.520404 -0.192324 -0.053224
0.513404 -0.185324 -0.060224
0.513404 -0.178324 -0.053224
0.520404 -0.185324 -0.053224
0.527404 -0.220324 -0.067224
0.527404 -0.220324 -0.060224
0.534404 -0.220324 -0.053224
0.527404 -0.213324 -0.060224
0.527404 -0.213324 -0.053224
0.534404 -0.213324 -0.053224
0.534404 -0.206324 -0.053224
0.534404 -0.206324 -0.046224
0.541404 -0.220324 -0.046224
0.548404 -0.227324 -0.039224
0.548404 -0.220324 -0.039224
0.548404 -0.227324 -0.032224
0.548404 -0.227324 -0.025224
0.548404 -0.220324 -0.032224
0.541404 -0.213324 -0.046224
0.541404 -0.206324 -0.046224
0.548404 -0.213324 -0.039224
0.548404 -0.206324 -0.039224
0.548404 -0.213324 -0.032224
0.548404 -0.206324 -0.032224
0.527404 -0.199324 -0.053224
0.527404 -0.192324 -0.053224
0.534404 -0.192324 -0.053224
0.527404 -0.185324 -0.046224
0.527404 -0.178324 -0.046224
0.534404 -0.185324 -0.046224
0.534404 -0.178324 -0.039224
0.541404 -0.199324 -0.046224
0.541404 -0.192324 -0.046224
0.541404 -0.192324 -0.039224
0.548404 -0.192324 -0.032224
0.548404 -0.192324 -0.025224
0.541404 -0.185324 -0.039224
0.541404 -0.178324 -0.039224
0.541404 -0.178324 -0.032224
0.548404 -0.185324 -0.032224
0.548404 -0.185324 -0.025224
0.548404 -0.178324 -0.025224
0.548404 -0.185324 -0.018224
0.548404 -0.178324 -0.018224
0.548404 -0.178324 -0.011224
0.555404 -0.248324 0.002776
0.555404 -0.241324 -0.011224
0.555404 -0.241324 -0.004224
0.555404 -0.241324 0.002776
0.555404 -0.248324 0.009776
0.555404 -0.248324 0.016776
0.555404 -0.255324 0.023776
0.555404 -0.255324 0.030776
0.555404 -0.248324 0.023776
0.555404 -0.248324 0.030776
0.555404 -0.241324 0.009776
0.562404 -0.241324 0.016776
0.555404 -0.241324 0.030776
0.562404 -0.241324 0.023776
0.555404 -0.220324 -0.025224
0.555404 -0.213324 -0.025224
0.555404 -0.206324 -0.025224
0.555404 -0.227324 -0.018224
0.555404 -0.227324 -0.011224
0.555404 -0.220324 -0.018224
0.555404 -0.220324 -0.011224
0.555404 -0.227324 -0.004224
0.562404 -0.227324 0.002776
0.562404 -0.220324 -0.004224
0.562404 -0.220324 0.002776
0.555404 -0.213324 -0.018224
0.555404 -0.213324 -0.011224
0.555404 -0.206324 -0.018224
0.562404 -0.213324 -0.004224
0.562404 -0.213324 0.002776
0.562404 -0.227324 0.009776
0.562404 -0.227324 0.016776
0.562404 -0.220324 0.009776
0.562404 -0.220324 0.016776
0.562404 -0.227324 0.023776
0.562404 -0.227324 0.030776
0.562404 -0.220324 0.023776
0.562404 -0.220324 0.030776
0.562404 -0.213324 0.009776
0.562404 -0.213324 0.016776
0.562404 -0.213324 0.023776
0.562404 -0.213324 0.030776
0.555404 -0.199324 -0.011224
0.555404 -0.192324 -0.018224
0.555404 -0.192324 -0.011224
0.555404 -0.192324 -0.004224
0.562404 -0.199324 -0.004224
0.562404 -0.199324 0.002776
0.562404 -0.192324 0.002776
0.555404 -0.185324 -0.011224
0.555404 -0.185324 -0.004224
0.555404 -0.185324 0.002776
0.555404 -0.178324 -0.004224
0.555404 -0.178324 0.002776
0.562404 -0.199324 0.009776
0.562404 -0.199324 0.016776
0.562404 -0.192324 0.009776
0.562404 -0.192324 0.016776
0.562404 -0.199324 0.023776
0.562404 -0.199324 0.030776
0.562404 -0.192324 0.023776
0.562404 -0.192324 0.030776
0.555404 -0.178324 0.009776
0.555404 -0.178324 0.016776
0.562404 -0.185324 0.009776
0.562404 -0.185324 0.016776
0.562404 -0.185324 0.023776
0.562404 -0.185324 0.030776
0.562404 -0.178324 0.023776
0.562404 -0.178324 0.030776
0.520404 -0.283324 0.086776
0.534404 -0.283324 0.058776
0.541404 -0.283324 0.037776
0.541404 -0.283324 0.044776
0.541404 -0.276324 0.037776
0.541404 -0.276324 0.044776
0.541404 -0.283324 0.051776
0.541404 -0.276324 0.051776
0.541404 -0.276324 0.058776
0.548404 -0.269324 0.037776
0.548404 -0.262324 0.044776
0.548404 -0.269324 0.051776
0.548404 -0.269324 0.058776
0.534404 -0.283324 0.065776
0.534404 -0.283324 0.072776
0.527404 -0.283324 0.079776
0.534404 -0.276324 0.079776
0.534404 -0.276324 0.086776
0.534404 -0.262324 0.086776
0.541404 -0.276324 0.065776
0.541404 -0.276324 0.072776
0.541404 -0.269324 0.072776
0.548404 -0.269324 0.065776
0.541404 -0.269324 0.079776
0.548404 -0.255324 0.037776
0.548404 -0.255324 0.044776
0.548404 -0.255324 0.051776
0.548404 -0.255324 0.058776
0.548404 -0.255324 0.065776
0.548404 -0.255324 0.072776
0.548404 -0.248324 0.065776
0.548404 -0.248324 0.072776
0.541404 -0.255324 0.086776
0.541404 -0.248324 0.086776
0.548404 -0.255324 0.079776
0.548404 -0.248324 0.079776
0.548404 -0.241324 0.079776
0.548404 -0.241324 0.086776
0.499404 -0.283324 0.114776
0.506404 -0.283324 0.107776
0.513404 -0.283324 0.100776
0.520404 -0.283324 0.093776
0.520404 -0.276324 0.100776
0.513404 -0.276324 0.107776
0.513404 -0.276324 0.114776
0.520404 -0.276324 0.107776
0.520404 -0.262324 0.107776
0.520404 -0.262324 0.114776
0.499404 -0.283324 0.121776
0.499404 -0.276324 0.121776
0.506404 -0.276324 0.121776
0.499404 -0.262324 0.128776
0.506404 -0.262324 0.121776
0.506404 -0.262324 0.128776
0.513404 -0.262324 0.121776
0.520404 -0.255324 0.114776
0.506404 -0.255324 0.128776
0.506404 -0.248324 0.128776
0.499404 -0.255324 0.135776
0.499404 -0.248324 0.135776
0.506404 -0.234324 0.128776
0.499404 -0.241324 0.135776
0.513404 -0.255324 0.121776
0.513404 -0.255324 0.128776
0.513404 -0.248324 0.121776
0.513404 -0.248324 0.128776
0.520404 -0.248324 0.121776
0.513404 -0.234324 0.128776
0.520404 -0.241324 0.121776
0.520404 -0.234324 0.121776
0.527404 -0.276324 0.093776
0.527404 -0.262324 0.100776
0.534404 -0.262324 0.093776
0.534404 -0.255324 0.093776
0.534404 -0.255324 0.100776
0.534404 -0.248324 0.093776
0.534404 -0.248324 0.100776
0.527404 -0.255324 0.107776
0.527404 -0.248324 0.107776
0.527404 -0.248324 0.114776
0.534404 -0.241324 0.100776
0.527404 -0.241324 0.107776
0.527404 -0.241324 0.114776
0.541404 -0.248324 0.093776
0.541404 -0.241324 0.093776
0.548404 -0.227324 0.079776
0.548404 -0.227324 0.086776
0.548404 -0.220324 0.086776
0.548404 -0.213324 0.086776
0.548404 -0.206324 0.086776
0.548404 -0.192324 0.079776
0.548404 -0.192324 0.086776
0.548404 -0.178324 0.072776
0.541404 -0.178324 0.086776
0.548404 -0.185324 0.079776
0.548404 -0.185324 0.086776
0.548404 -0.178324 0.079776
0.506404 -0.220324 0.128776
0.499404 -0.227324 0.135776
0.499404 -0.220324 0.135776
0.506404 -0.227324 0.135776
0.506404 -0.220324 0.135776
0.499404 -0.213324 0.128776
0.506404 -0.213324 0.128776
0.506404 -0.206324 0.128776
0.499404 -0.213324 0.135776
0.513404 -0.227324 0.128776
0.513404 -0.220324 0.128776
0.520404 -0.227324 0.121776
0.520404 -0.227324 0.128776
0.520404 -0.220324 0.121776
0.520404 -0.220324 0.128776
0.513404 -0.213324 0.128776
0.513404 -0.206324 0.121776
0.513404 -0.206324 0.128776
0.520404 -0.213324 0.121776
0.520404 -0.206324 0.121776
0.499404 -0.178324 0.114776
0.506404 -0.185324 0.114776
0.506404 -0.178324 0.107776
0.520404 -0.192324 0.114776
0.513404 -0.185324 0.114776
0.513404 -0.178324 0.107776
0.520404 -0.185324 0.114776
0.520404 -0.178324 0.107776
0.499404 -0.199324 0.128776
0.499404 -0.192324 0.121776
0.506404 -0.192324 0.121776
0.499404 -0.185324 0.121776
0.513404 -0.192324 0.121776
0.527404 -0.227324 0.107776
0.527404 -0.227324 0.114776
0.527404 -0.220324 0.114776
0.534404 -0.227324 0.107776
0.534404 -0.220324 0.107776
0.534404 -0.220324 0.114776
0.527404 -0.213324 0.114776
0.527404 -0.206324 0.114776
0.534404 -0.213324 0.107776
0.534404 -0.213324 0.114776
0.534404 -0.206324 0.107776
0.534404 -0.206324 0.114776
0.541404 -0.227324 0.093776
0.541404 -0.227324 0.100776
0.541404 -0.220324 0.093776
0.541404 -0.220324 0.100776
0.541404 -0.213324 0.093776
0.541404 -0.213324 0.100776
0.541404 -0.206324 0.093776
0.541404 -0.206324 0.100776
0.527404 -0.192324 0.107776
0.527404 -0.192324 0.114776
0.534404 -0.192324 0.107776
0.534404 -0.185324 0.100776
0.534404 -0.178324 0.093776
0.534404 -0.178324 0.100776
0.527404 -0.185324 0.107776
0.527404 -0.178324 0.107776
0.541404 -0.192324 0.093776
0.541404 -0.192324 0.100776
0.541404 -0.185324 0.093776
0.541404 -0.185324 0.100776
0.541404 -0.178324 0.093776
0.555404 -0.248324 0.037776
0.555404 -0.248324 0.044776
0.555404 -0.248324 0.051776
0.555404 -0.248324 0.058776
0.555404 -0.241324 0.037776
0.555404 -0.241324 0.044776
0.555404 -0.241324 0.051776
0.555404 -0.241324 0.058776
0.555404 -0.241324 0.065776
0.555404 -0.241324 0.072776
0.562404 -0.227324 0.037776
0.562404 -0.227324 0.044776
0.562404 -0.220324 0.037776
0.562404 -0.220324 0.044776
0.555404 -0.227324 0.051776
0.555404 -0.227324 0.058776
0.555404 -0.220324 0.058776
0.562404 -0.220324 0.051776
0.562404 -0.213324 0.037776
0.562404 -0.213324 0.044776
0.555404 -0.213324 0.058776
0.562404 -0.213324 0.051776
0.555404 -0.227324 0.065776
0.555404 -0.227324 0.072776
0.555404 -0.220324 0.065776
0.555404 -0.220324 0.072776
0.555404 -0.227324 0.079776
0.555404 -0.220324 0.079776
0.555404 -0.213324 0.065776
0.555404 -0.213324 0.072776
0.555404 -0.213324 0.079776
0.555404 -0.206324 0.079776
0.562404 -0.199324 0.037776
0.562404 -0.199324 0.044776
0.562404 -0.192324 0.037776
0.562404 -0.192324 0.044776
0.562404 -0.199324 0.051776
0.562404 -0.199324 0.058776
0.562404 -0.192324 0.051776
0.562404 -0.192324 0.058776
0.555404 -0.178324 0.044776
0.562404 -0.185324 0.037776
0.562404 -0.185324 0.044776
0.562404 -0.178324 0.037776
0.555404 -0.185324 0.058776
0.555404 -0.178324 0.051776
0.555404 -0.178324 0.058776
0.562404 -0.185324 0.051776
0.555404 -0.199324 0.065776
0.555404 -0.199324 0.072776
0.555404 -0.192324 0.065776
0.555404 -0.192324 0.072776
0.555404 -0.199324 0.079776
0.555404 -0.185324 0.065776
0.555404 -0.185324 0.072776
0.555404 -0.178324 0.065776
0.499404 -0.171324 -0.046224
0.499404 -0.164324 -0.039224
0.506404 -0.171324 -0.046224
0.506404 -0.164324 -0.039224
0.499404 -0.157324 -0.032224
0.499404 -0.157324 -0.025224
0.506404 -0.157324 -0.032224
0.506404 -0.157324 -0.025224
0.513404 -0.171324 -0.046224
0.513404 -0.164324 -0.039224
0.520404 -0.171324 -0.046224
0.520404 -0.164324 -0.039224
0.513404 -0.164324 -0.032224
0.520404 -0.164324 -0.032224
0.513404 -0.157324 -0.032224
0.513404 -0.157324 -0.025224
0.520404 -0.157324 -0.025224
0.527404 -0.171324 -0.039224
0.534404 -0.171324 -0.039224
0.527404 -0.164324 -0.032224
0.534404 -0.164324 -0.032224
0.527404 -0.157324 -0.025224
0.534404 -0.157324 -0.025224
0.541404 -0.171324 -0.032224
0.541404 -0.164324 -0.025224
0.548404 -0.171324 -0.025224
0.499404 -0.150324 -0.018224
0.506404 -0.150324 -0.018224
0.513404 -0.150324 -0.018224
0.520404 -0.150324 -0.018224
0.520404 -0.150324 -0.011224
0.499404 -0.143324 -0.011224
0.506404 -0.143324 -0.011224
0.499404 -0.143324 -0.004224
0.499404 -0.143324 0.002776
0.506404 -0.143324 -0.004224
0.506404 -0.143324 0.002776
0.513404 -0.143324 -0.011224
0.513404 -0.143324 0.002776
0.520404 -0.143324 0.002776
0.499404 -0.143324 0.009776
0.506404 -0.136324 0.016776
0.499404 -0.136324 0.023776
0.499404 -0.136324 0.030776
0.506404 -0.136324 0.023776
0.506404 -0.136324 0.030776
0.513404 -0.143324 0.009776
0.513404 -0.136324 0.016776
0.520404 -0.143324 0.009776
0.520404 -0.143324 0.016776
0.513404 -0.136324 0.030776
0.520404 -0.143324 0.030776
0.534404 -0.164324 -0.018224
0.527404 -0.150324 -0.018224
0.534404 -0.157324 -0.011224
0.534404 -0.150324 -0.011224
0.527404 -0.150324 -0.004224
0.534404 -0.150324 -0.004224
0.541404 -0.164324 -0.018224
0.548404 -0.171324 -0.018224
0.548404 -0.171324 -0.011224
0.548404 -0.164324 -0.018224
0.548404 -0.164324 -0.004224
0.548404 -0.164324 0.002776
0.541404 -0.157324 -0.011224
0.541404 -0.157324 0.002776
0.548404 -0.157324 -0.004224
0.548404 -0.157324 0.002776
0.534404 -0.150324 0.009776
0.541404 -0.150324 0.009776
0.541404 -0.150324 0.016776
0.548404 -0.157324 0.009776
0.541404 -0.150324 0.030776
0.548404 -0.157324 0.023776
0.548404 -0.157324 0.030776
0.548404 -0.150324 0.030776
0.527404 -0.143324 0.002776
0.527404 -0.143324 0.016776
0.534404 -0.143324 0.016776
0.527404 -0.143324 0.023776
0.527404 -0.143324 0.030776
0.534404 -0.143324 0.023776
0.555404 -0.164324 0.002776
0.555404 -0.164324 0.009776
0.555404 -0.164324 0.016776
0.555404 -0.164324 0.023776
0.555404 -0.164324 0.030776
0.555404 -0.157324 0.023776
0.499404 -0.157324 0.086776
0.499404 -0.150324 0.079776
0.506404 -0.150324 0.079776
0.513404 -0.150324 0.086776
0.520404 -0.157324 0.086776
0.520404 -0.150324 0.079776
0.499404 -0.136324 0.037776
0.506404 -0.136324 0.044776
0.499404 -0.143324 0.051776
0.499404 -0.143324 0.058776
0.506404 -0.136324 0.051776
0.513404 -0.136324 0.037776
0.513404 -0.136324 0.044776
0.520404 -0.136324 0.037776
0.520404 -0.136324 0.044776
0.513404 -0.143324 0.058776
0.520404 -0.143324 0.051776
0.520404 -0.143324 0.058776
0.499404 -0.143324 0.065776
0.506404 -0.143324 0.065776
0.506404 -0.143324 0.072776
0.513404 -0.143324 0.065776
0.513404 -0.143324 0.072776
0.520404 -0.143324 0.065776
0.534404 -0.150324 0.044776
0.527404 -0.150324 0.058776
0.534404 -0.150324 0.051776
0.548404 -0.164324 0.051776
0.548404 -0.164324 0.058776
0.541404 -0.150324 0.037776
0.541404 -0.150324 0.044776
0.548404 -0.157324 0.037776
0.548404 -0.157324 0.044776
0.541404 -0.157324 0.058776
0.541404 -0.150324 0.058776
0.548404 -0.157324 0.051776
0.548404 -0.157324 0.058776
0.527404 -0.164324 0.086776
0.534404 -0.171324 0.086776
0.534404 -0.164324 0.079776
0.527404 -0.150324 0.072776
0.534404 -0.157324 0.072776
0.534404 -0.150324 0.065776
0.534404 -0.150324 0.072776
0.527404 -0.157324 0.079776
0.534404 -0.157324 0.079776
0.541404 -0.164324 0.065776
0.541404 -0.164324 0.072776
0.548404 -0.171324 0.072776
0.548404 -0.164324 0.065776
0.541404 -0.171324 0.079776
0.541404 -0.171324 0.086776
0.548404 -0.171324 0.079776
0.541404 -0.157324 0.065776
0.527404 -0.143324 0.044776
0.534404 -0.143324 0.037776
0.534404 -0.143324 0.044776
0.527404 -0.143324 0.051776
0.527404 -0.143324 0.058776
0.499404 -0.164324 0.100776
0.506404 -0.164324 0.100776
0.499404 -0.171324 0.107776
0.499404 -0.164324 0.107776
0.506404 -0.157324 0.093776
0.513404 -0.164324 0.100776
0.520404 -0.171324 0.100776
0.520404 -0.164324 0.093776
0.520404 -0.171324 0.107776
0.513404 -0.157324 0.093776
0.527404 -0.171324 0.093776
0.534404 -0.171324 0.093776
0.534404 -0.164324 0.093776
0.555404 -0.164324 0.037776
0.555404 -0.164324 0.044776
0.555404 -0.164324 0.051776
0.387404 -0.276324 0.156776
0.394404 -0.283324 0.149776
0.394404 -0.276324 0.149776
0.387404 -0.276324 0.163776
0.394404 -0.269324 0.156776
0.387404 -0.269324 0.163776
0.387404 -0.269324 0.170776
0.394404 -0.262324 0.163776
0.394404 -0.262324 0.170776
0.401404 -0.276324 0.149776
0.401404 -0.269324 0.149776
0.401404 -0.262324 0.149776
0.401404 -0.262324 0.156776
0.408404 -0.262324 0.149776
0.387404 -0.255324 0.170776
0.394404 -0.248324 0.163776
0.394404 -0.248324 0.170776
0.408404 -0.248324 0.149776
0.408404 -0.248324 0.156776
0.401404 -0.248324 0.163776
0.408404 -0.241324 0.149776
0.408404 -0.241324 0.156776
0.401404 -0.241324 0.163776
0.401404 -0.241324 0.170776
0.401404 -0.234324 0.170776
0.408404 -0.234324 0.163776
0.387404 -0.248324 0.177776
0.387404 -0.248324 0.184776
0.387404 -0.241324 0.184776
0.394404 -0.241324 0.177776
0.394404 -0.241324 0.184776
0.394404 -0.234324 0.184776
0.387404 -0.234324 0.191776
0.401404 -0.234324 0.177776
0.415404 -0.283324 0.149776
0.422404 -0.283324 0.149776
0.422404 -0.276324 0.149776
0.422404 -0.269324 0.149776
0.422404 -0.262324 0.149776
0.429404 -0.283324 0.149776
0.436404 -0.283324 0.149776
0.429404 -0.269324 0.149776
0.429404 -0.262324 0.149776
0.436404 -0.269324 0.149776
0.436404 -0.262324 0.149776
0.415404 -0.241324 0.149776
0.415404 -0.234324 0.149776
0.415404 -0.234324 0.156776
0.429404 -0.255324 0.149776
0.436404 -0.255324 0.149776
0.408404 -0.220324 0.163776
0.408404 -0.220324 0.170776
0.408404 -0.213324 0.170776
0.408404 -0.206324 0.170776
0.394404 -0.220324 0.184776
0.387404 -0.220324 0.198776
0.394404 -0.220324 0.191776
0.394404 -0.213324 0.184776
0.387404 -0.213324 0.198776
0.387404 -0.206324 0.198776
0.394404 -0.213324 0.191776
0.394404 -0.206324 0.191776
0.401404 -0.220324 0.177776
0.401404 -0.213324 0.184776
0.401404 -0.206324 0.184776
0.408404 -0.213324 0.177776
0.408404 -0.206324 0.177776
0.387404 -0.199324 0.198776
0.394404 -0.199324 0.191776
0.387404 -0.185324 0.198776
0.387404 -0.178324 0.198776
0.394404 -0.185324 0.191776
0.394404 -0.178324 0.191776
0.401404 -0.199324 0.184776
0.408404 -0.199324 0.177776
0.401404 -0.199324 0.191776
0.401404 -0.185324 0.184776
0.401404 -0.178324 0.184776
0.408404 -0.185324 0.177776
0.408404 -0.178324 0.177776
0.401404 -0.185324 0.191776
0.415404 -0.220324 0.149776
0.415404 -0.220324 0.156776
0.415404 -0.213324 0.156776
0.422404 -0.213324 0.149776
0.422404 -0.213324 0.156776
0.422404 -0.206324 0.149776
0.422404 -0.206324 0.156776
0.415404 -0.213324 0.163776
0.415404 -0.206324 0.163776
0.415404 -0.206324 0.170776
0.422404 -0.199324 0.156776
0.415404 -0.199324 0.163776
0.415404 -0.199324 0.170776
0.422404 -0.185324 0.156776
0.422404 -0.178324 0.156776
0.415404 -0.185324 0.170776
0.415404 -0.178324 0.170776
0.422404 -0.185324 0.163776
0.422404 -0.178324 0.163776
0.429404 -0.199324 0.149776
0.429404 -0.185324 0.149776
0.429404 -0.178324 0.156776
0.443404 -0.283324 0.149776
0.450404 -0.283324 0.149776
0.443404 -0.269324 0.149776
0.443404 -0.262324 0.149776
0.450404 -0.269324 0.149776
0.450404 -0.262324 0.149776
0.457404 -0.283324 0.149776
0.457404 -0.276324 0.149776
0.464404 -0.283324 0.149776
0.464404 -0.276324 0.149776
0.457404 -0.262324 0.149776
0.464404 -0.262324 0.149776
0.443404 -0.255324 0.149776
0.443404 -0.248324 0.149776
0.450404 -0.255324 0.149776
0.450404 -0.248324 0.149776
0.457404 -0.255324 0.149776
0.457404 -0.248324 0.149776
0.464404 -0.255324 0.149776
0.464404 -0.248324 0.149776
0.457404 -0.234324 0.149776
0.464404 -0.234324 0.149776
0.471404 -0.276324 0.149776
0.471404 -0.262324 0.149776
0.471404 -0.255324 0.149776
0.471404 -0.248324 0.149776
0.471404 -0.234324 0.149776
0.387404 -0.171324 0.198776
0.387404 -0.164324 0.198776
0.394404 -0.171324 0.191776
0.394404 -0.164324 0.191776
0.387404 -0.150324 0.198776
0.394404 -0.150324 0.191776
0.401404 -0.171324 0.184776
0.401404 -0.164324 0.184776
0.408404 -0.171324 0.177776
0.408404 -0.164324 0.177776
0.401404 -0.150324 0.184776
0.408404 -0.150324 0.177776
0.387404 -0.143324 0.198776
0.387404 -0.136324 0.198776
0.394404 -0.143324 0.198776
0.394404 -0.136324 0.198776
0.387404 -0.129324 0.198776
0.394404 -0.129324 0.198776
0.401404 -0.143324 0.184776
0.401404 -0.136324 0.184776
0.408404 -0.143324 0.177776
0.408404 -0.136324 0.177776
0.408404 -0.136324 0.184776
0.401404 -0.143324 0.191776
0.401404 -0.136324 0.191776
0.401404 -0.129324 0.184776
0.408404 -0.129324 0.184776
0.401404 -0.129324 0.191776
0.422404 -0.171324 0.156776
0.422404 -0.164324 0.156776
0.415404 -0.171324 0.170776
0.415404 -0.164324 0.170776
0.422404 -0.171324 0.163776
0.422404 -0.164324 0.163776
0.422404 -0.150324 0.156776
0.415404 -0.150324 0.170776
0.422404 -0.150324 0.163776
0.429404 -0.171324 0.149776
0.429404 -0.164324 0.149776
0.429404 -0.164324 0.156776
0.429404 -0.157324 0.149776
0.429404 -0.157324 0.156776
0.422404 -0.143324 0.156776
0.422404 -0.136324 0.156776
0.415404 -0.143324 0.170776
0.415404 -0.136324 0.170776
0.422404 -0.143324 0.163776
0.422404 -0.136324 0.163776
0.422404 -0.129324 0.156776
0.415404 -0.129324 0.170776
0.422404 -0.129324 0.163776
0.422404 -0.122324 0.163776
0.429404 -0.143324 0.149776
0.429404 -0.143324 0.156776
0.429404 -0.136324 0.149776
0.429404 -0.136324 0.156776
0.429404 -0.129324 0.149776
0.429404 -0.129324 0.156776
0.429404 -0.122324 0.149776
0.429404 -0.122324 0.156776
0.415404 -0.129324 0.177776
0.387404 -0.129324 0.205776
0.387404 -0.115324 0.198776
0.394404 -0.115324 0.198776
0.394404 -0.108324 0.198776
0.394404 -0.101324 0.198776
0.394404 -0.094324 0.198776
0.401404 -0.115324 0.184776
0.401404 -0.108324 0.184776
0.408404 -0.115324 0.184776
0.408404 -0.108324 0.184776
0.401404 -0.115324 0.191776
0.401404 -0.108324 0.191776
0.401404 -0.101324 0.184776
0.401404 -0.094324 0.184776
0.408404 -0.101324 0.184776
0.408404 -0.094324 0.184776
0.401404 -0.101324 0.191776
0.401404 -0.094324 0.191776
0.394404 -0.080324 0.198776
0.394404 -0.073324 0.198776
0.394404 -0.066324 0.198776
0.401404 -0.087324 0.184776
0.408404 -0.087324 0.184776
0.401404 -0.080324 0.191776
0.401404 -0.073324 0.184776
0.401404 -0.066324 0.184776
0.408404 -0.073324 0.177776
0.408404 -0.073324 0.184776
0.408404 -0.066324 0.177776
0.408404 -0.066324 0.184776
0.401404 -0.073324 0.191776
0.401404 -0.066324 0.191776
0.415404 -0.115324 0.170776
0.415404 -0.108324 0.170776
0.422404 -0.108324 0.163776
0.415404 -0.101324 0.170776
0.415404 -0.094324 0.170776
0.422404 -0.101324 0.163776
0.422404 -0.101324 0.170776
0.422404 -0.094324 0.163776
0.422404 -0.094324 0.170776
0.429404 -0.108324 0.149776
0.429404 -0.108324 0.156776
0.429404 -0.101324 0.149776
0.429404 -0.101324 0.156776
0.429404 -0.094324 0.149776
0.429404 -0.094324 0.156776
0.415404 -0.115324 0.177776
0.415404 -0.108324 0.177776
0.415404 -0.101324 0.177776
0.415404 -0.094324 0.177776
0.415404 -0.087324 0.170776
0.422404 -0.087324 0.163776
0.422404 -0.087324 0.170776
0.415404 -0.073324 0.170776
0.415404 -0.066324 0.170776
0.422404 -0.073324 0.163776
0.422404 -0.073324 0.170776
0.422404 -0.066324 0.163776
0.429404 -0.087324 0.156776
0.436404 -0.087324 0.149776
0.429404 -0.073324 0.149776
0.429404 -0.073324 0.156776
0.429404 -0.066324 0.149776
0.429404 -0.066324 0.156776
0.415404 -0.087324 0.177776
0.387404 -0.115324 0.205776
0.387404 -0.108324 0.205776
0.394404 -0.108324 0.205776
0.387404 -0.101324 0.205776
0.387404 -0.094324 0.205776
0.394404 -0.101324 0.205776
0.394404 -0.094324 0.205776
0.387404 -0.080324 0.205776
0.394404 -0.080324 0.205776
0.387404 -0.073324 0.205776
0.387404 -0.066324 0.205776
0.387404 -0.059324 -0.179224
0.387404 -0.052324 -0.179224
0.387404 -0.052324 -0.172224
0.394404 -0.052324 -0.172224
0.387404 -0.038324 -0.179224
0.387404 -0.038324 -0.172224
0.394404 -0.045324 -0.172224
0.394404 -0.038324 -0.165224
0.401404 -0.059324 -0.172224
0.401404 -0.059324 -0.165224
0.408404 -0.059324 -0.165224
0.408404 -0.052324 -0.165224
0.401404 -0.045324 -0.165224
0.401404 -0.038324 -0.165224
0.408404 -0.052324 -0.158224
0.408404 -0.045324 -0.158224
0.408404 -0.038324 -0.158224
0.387404 -0.031324 -0.172224
0.387404 -0.024324 -0.165224
0.394404 -0.024324 -0.165224
0.387404 -0.017324 -0.165224
0.387404 -0.010324 -0.158224
0.394404 -0.017324 -0.158224
0.394404 -0.010324 -0.151224
0.394404 -0.010324 -0.144224
0.401404 -0.031324 -0.158224
0.401404 -0.024324 -0.151224
0.408404 -0.031324 -0.158224
0.408404 -0.024324 -0.151224
0.401404 -0.017324 -0.144224
0.401404 -0.010324 -0.144224
0.408404 -0.017324 -0.144224
0.408404 -0.010324 -0.137224
0.415404 -0.059324 -0.158224
0.415404 -0.059324 -0.151224
0.415404 -0.052324 -0.151224
0.422404 -0.059324 -0.144224
0.422404 -0.052324 -0.144224
0.422404 -0.052324 -0.137224
0.415404 -0.045324 -0.151224
0.415404 -0.038324 -0.151224
0.415404 -0.045324 -0.144224
0.415404 -0.038324 -0.144224
0.422404 -0.045324 -0.137224
0.429404 -0.059324 -0.137224
0.415404 -0.031324 -0.144224
0.415404 -0.024324 -0.137224
0.422404 -0.031324 -0.137224
0.415404 -0.017324 -0.137224
0.429404 -0.059324 -0.130224
0.429404 -0.052324 -0.130224
0.436404 -0.059324 -0.123224
0.436404 -0.052324 -0.123224
0.436404 -0.059324 -0.116224
0.429404 -0.045324 -0.130224
0.436404 -0.045324 -0.123224
0.422404 -0.031324 -0.130224
0.422404 -0.024324 -0.130224
0.415404 -0.017324 -0.130224
0.415404 -0.010324 -0.130224
0.415404 -0.010324 -0.123224
0.422404 -0.017324 -0.123224
0.422404 -0.010324 -0.116224
0.429404 -0.031324 -0.130224
0.429404 -0.024324 -0.123224
0.436404 -0.031324 -0.123224
0.436404 -0.031324 -0.116224
0.436404 -0.024324 -0.116224
0.436404 -0.024324 -0.109224
0.429404 -0.017324 -0.116224
0.429404 -0.010324 -0.116224
0.436404 -0.017324 -0.109224
0.436404 -0.017324 -0.102224
0.436404 -0.010324 -0.102224
0.387404 -0.003324 -0.151224
0.394404 -0.003324 -0.151224
0.387404 0.003676 -0.144224
0.394404 0.003676 -0.144224
0.387404 0.017676 -0.151224
0.387404 0.017676 -0.144224
0.394404 0.010676 -0.137224
0.401404 -0.003324 -0.137224
0.401404 0.010676 -0.137224
0.387404 0.031676 -0.144224
0.394404 0.024676 -0.144224
0.394404 0.024676 -0.137224
0.394404 0.031676 -0.137224
0.387404 0.038676 -0.144224
0.387404 0.045676 -0.137224
0.394404 0.038676 -0.137224
0.394404 0.045676 -0.137224
0.401404 0.003676 -0.130224
0.408404 -0.003324 -0.130224
0.408404 0.003676 -0.130224
0.401404 0.010676 -0.130224
0.401404 0.017676 -0.130224
0.408404 0.010676 -0.130224
0.408404 0.017676 -0.130224
0.401404 0.024676 -0.130224
0.408404 0.024676 -0.123224
0.408404 0.031676 -0.123224
0.401404 0.038676 -0.130224
0.401404 0.038676 -0.123224
0.401404 0.045676 -0.123224
0.408404 0.038676 -0.116224
0.408404 0.045676 -0.116224
0.408404 0.045676 -0.109224
0.415404 -0.003324 -0.123224
0.415404 0.003676 -0.123224
0.422404 -0.003324 -0.109224
0.422404 0.003676 -0.116224
0.422404 0.003676 -0.109224
0.415404 0.010676 -0.123224
0.415404 0.017676 -0.123224
0.415404 0.010676 -0.116224
0.415404 0.017676 -0.116224
0.422404 0.010676 -0.109224
0.422404 0.017676 -0.109224
0.429404 -0.003324 -0.109224
0.422404 0.017676 -0.102224
0.429404 0.003676 -0.102224
0.436404 -0.003324 -0.102224
0.436404 -0.003324 -0.095224
0.436404 0.003676 -0.095224
0.436404 -0.003324 -0.088224
0.436404 0.003676 -0.088224
0.436404 0.003676 -0.081224
0.429404 0.010676 -0.102224
0.429404 0.010676 -0.095224
0.429404 0.017676 -0.095224
0.436404 0.010676 -0.088224
0.436404 0.010676 -0.081224
0.415404 0.031676 -0.116224
0.422404 0.031676 -0.109224
0.415404 0.038676 -0.116224
0.415404 0.038676 -0.109224
0.415404 0.045676 -0.109224
0.422404 0.031676 -0.102224
0.415404 0.038676 -0.102224
0.415404 0.045676 -0.102224
0.415404 0.045676 -0.095224
0.422404 0.038676 -0.102224
0.422404 0.038676 -0.095224
0.422404 0.045676 -0.088224
0.429404 0.031676 -0.095224
0.429404 0.024676 -0.088224
0.429404 0.031676 -0.088224
0.429404 0.031676 -0.081224
0.436404 0.024676 -0.081224
0.429404 0.038676 -0.088224
0.429404 0.038676 -0.081224
0.429404 0.045676 -0.081224
0.443404 -0.059324 -0.109224
0.443404 -0.052324 -0.116224
0.443404 -0.052324 -0.109224
0.443404 -0.045324 -0.116224
0.443404 -0.038324 -0.109224
0.443404 -0.059324 -0.102224
0.443404 -0.052324 -0.102224
0.450404 -0.059324 -0.095224
0.450404 -0.052324 -0.095224
0.450404 -0.059324 -0.088224
0.450404 -0.059324 -0.081224
0.450404 -0.052324 -0.088224
0.450404 -0.052324 -0.081224
0.443404 -0.038324 -0.102224
0.450404 -0.038324 -0.095224
0.450404 -0.038324 -0.088224
0.450404 -0.038324 -0.081224
0.443404 -0.031324 -0.109224
0.443404 -0.031324 -0.102224
0.443404 -0.031324 -0.095224
0.443404 -0.024324 -0.102224
0.443404 -0.024324 -0.095224
0.443404 -0.024324 -0.088224
0.450404 -0.031324 -0.088224
0.450404 -0.031324 -0.081224
0.450404 -0.024324 -0.081224
0.443404 -0.017324 -0.095224
0.443404 -0.017324 -0.088224
0.443404 -0.017324 -0.081224
0.443404 -0.003324 -0.081224
0.387404 0.052676 -0.130224
0.387404 0.059676 -0.130224
0.394404 0.052676 -0.130224
0.394404 0.059676 -0.123224
0.387404 0.066676 -0.123224
0.387404 0.073676 -0.123224
0.387404 0.073676 -0.116224
0.394404 0.066676 -0.116224
0.394404 0.073676 -0.116224
0.401404 0.052676 -0.123224
0.401404 0.052676 -0.116224
0.401404 0.059676 -0.116224
0.401404 0.059676 -0.109224
0.408404 0.059676 -0.109224
0.401404 0.066676 -0.109224
0.408404 0.059676 -0.102224
0.401404 0.073676 -0.102224
0.401404 0.073676 -0.095224
0.408404 0.066676 -0.102224
0.408404 0.066676 -0.095224
0.408404 0.066676 -0.088224
0.408404 0.066676 -0.081224
0.408404 0.073676 -0.088224
0.408404 0.073676 -0.081224
0.387404 0.080676 -0.109224
0.387404 0.087676 -0.116224
0.387404 0.087676 -0.109224
0.394404 0.080676 -0.109224
0.387404 0.087676 -0.102224
0.394404 0.080676 -0.102224
0.394404 0.087676 -0.095224
0.387404 0.094676 -0.102224
0.387404 0.101676 -0.095224
0.394404 0.094676 -0.088224
0.394404 0.101676 -0.081224
0.401404 0.080676 -0.095224
0.401404 0.080676 -0.088224
0.401404 0.080676 -0.081224
0.401404 0.087676 -0.088224
0.401404 0.094676 -0.081224
0.415404 0.052676 -0.095224
0.415404 0.052676 -0.088224
0.415404 0.059676 -0.088224
0.415404 0.059676 -0.081224
0.422404 0.052676 -0.081224
0.387404 0.108676 -0.088224
0.387404 0.108676 -0.081224
0.436404 0.024676 -0.074224
0.436404 0.031676 -0.074224
0.436404 0.031676 -0.067224
0.436404 0.031676 -0.060224
0.429404 0.038676 -0.074224
0.429404 0.045676 -0.074224
0.429404 0.045676 -0.067224
0.436404 0.038676 -0.067224
0.436404 0.038676 -0.060224
0.436404 0.038676 -0.053224
0.436404 0.045676 -0.060224
0.436404 0.045676 -0.053224
0.436404 0.045676 -0.046224
0.457404 -0.059324 -0.074224
0.457404 -0.059324 -0.067224
0.457404 -0.052324 -0.074224
0.457404 -0.052324 -0.067224
0.457404 -0.059324 -0.060224
0.457404 -0.059324 -0.053224
0.457404 -0.052324 -0.060224
0.464404 -0.052324 -0.053224
0.457404 -0.038324 -0.074224
0.457404 -0.038324 -0.067224
0.457404 -0.038324 -0.060224
0.457404 -0.038324 -0.053224
0.464404 -0.038324 -0.053224
0.464404 -0.059324 -0.046224
0.464404 -0.059324 -0.039224
0.464404 -0.052324 -0.046224
0.464404 -0.052324 -0.039224
0.464404 -0.059324 -0.032224
0.464404 -0.059324 -0.025224
0.464404 -0.052324 -0.032224
0.464404 -0.052324 -0.025224
0.464404 -0.038324 -0.046224
0.464404 -0.038324 -0.039224
0.464404 -0.038324 -0.032224
0.464404 -0.038324 -0.025224
0.450404 -0.031324 -0.074224
0.450404 -0.024324 -0.074224
0.450404 -0.024324 -0.067224
0.450404 -0.017324 -0.074224
0.450404 -0.010324 -0.067224
0.450404 -0.010324 -0.060224
0.457404 -0.031324 -0.067224
0.457404 -0.031324 -0.060224
0.457404 -0.031324 -0.053224
0.457404 -0.024324 -0.060224
0.457404 -0.024324 -0.053224
0.457404 -0.010324 -0.053224
0.457404 -0.024324 -0.046224
0.464404 -0.031324 -0.046224
0.464404 -0.031324 -0.039224
0.464404 -0.024324 -0.039224
0.464404 -0.031324 -0.032224
0.464404 -0.031324 -0.025224
0.464404 -0.024324 -0.032224
0.464404 -0.024324 -0.025224
0.457404 -0.010324 -0.046224
0.457404 -0.010324 -0.039224
0.457404 -0.010324 -0.032224
0.464404 -0.010324 -0.025224
0.464404 -0.059324 -0.018224
0.464404 -0.059324 -0.011224
0.464404 -0.052324 -0.018224
0.464404 -0.052324 -0.011224
0.464404 -0.059324 -0.004224
0.464404 -0.059324 0.002776
0.464404 -0.038324 -0.018224
0.464404 -0.038324 -0.011224
0.464404 -0.045324 -0.004224
0.464404 -0.045324 0.002776
0.464404 -0.038324 -0.004224
0.464404 -0.038324 0.002776
0.464404 -0.059324 0.009776
0.464404 -0.059324 0.016776
0.464404 -0.052324 0.009776
0.464404 -0.052324 0.016776
0.464404 -0.059324 0.023776
0.464404 -0.059324 0.030776
0.464404 -0.052324 0.023776
0.464404 -0.052324 0.030776
0.464404 -0.038324 0.009776
0.464404 -0.038324 0.016776
0.464404 -0.038324 0.023776
0.464404 -0.038324 0.030776
0.464404 -0.031324 -0.018224
0.464404 -0.031324 -0.011224
0.464404 -0.024324 -0.018224
0.464404 -0.024324 -0.011224
0.464404 -0.031324 -0.004224
0.464404 -0.031324 0.002776
0.464404 -0.024324 -0.004224
0.464404 -0.024324 0.002776
0.464404 -0.010324 -0.018224
0.464404 -0.010324 -0.011224
0.464404 -0.010324 -0.004224
0.464404 -0.010324 0.002776
0.464404 -0.031324 0.009776
0.464404 -0.031324 0.016776
0.464404 -0.024324 0.009776
0.464404 -0.024324 0.016776
0.464404 -0.031324 0.023776
0.464404 -0.031324 0.030776
0.464404 -0.024324 0.023776
0.464404 -0.024324 0.030776
0.464404 -0.010324 0.009776
0.464404 -0.010324 0.016776
0.457404 -0.010324 0.030776
0.464404 -0.010324 0.023776
0.443404 -0.003324 -0.074224
0.443404 0.003676 -0.074224
0.443404 0.003676 -0.067224
0.450404 -0.003324 -0.067224
0.450404 -0.003324 -0.060224
0.450404 -0.003324 -0.053224
0.450404 0.003676 -0.060224
0.450404 0.003676 -0.053224
0.443404 0.010676 -0.074224
0.443404 0.010676 -0.067224
0.443404 0.010676 -0.060224
0.450404 0.010676 -0.053224
0.457404 -0.003324 -0.053224
0.450404 0.003676 -0.046224
0.450404 0.010676 -0.046224
0.450404 0.010676 -0.039224
0.450404 0.010676 -0.032224
0.457404 -0.003324 -0.046224
0.457404 -0.003324 -0.039224
0.457404 0.003676 -0.039224
0.457404 -0.003324 -0.032224
0.457404 -0.003324 -0.025224
0.457404 0.003676 -0.032224
0.457404 0.003676 -0.025224
0.457404 0.010676 -0.025224
0.443404 0.024676 -0.067224
0.443404 0.024676 -0.060224
0.443404 0.024676 -0.053224
0.443404 0.031676 -0.053224
0.443404 0.038676 -0.053224
0.443404 0.031676 -0.046224
0.443404 0.031676 -0.039224
0.450404 0.024676 -0.046224
0.450404 0.024676 -0.039224
0.450404 0.024676 -0.032224
0.450404 0.024676 -0.025224
0.450404 0.031676 -0.032224
0.450404 0.031676 -0.025224
0.443404 0.038676 -0.046224
0.443404 0.038676 -0.039224
0.443404 0.045676 -0.039224
0.443404 0.038676 -0.032224
0.443404 0.038676 -0.025224
0.443404 0.045676 -0.032224
0.457404 -0.003324 -0.018224
0.457404 0.003676 -0.018224
0.457404 0.003676 -0.011224
0.464404 -0.003324 -0.011224
0.457404 -0.003324 0.002776
0.457404 0.003676 -0.004224
0.457404 0.003676 0.002776
0.464404 -0.003324 -0.004224
0.457404 0.010676 -0.018224
0.457404 0.010676 -0.011224
0.457404 0.010676 -0.004224
0.457404 0.010676 0.002776
0.457404 -0.003324 0.009776
0.457404 -0.003324 0.016776
0.457404 0.003676 0.009776
0.457404 0.003676 0.016776
0.457404 -0.003324 0.023776
0.457404 -0.003324 0.030776
0.457404 0.003676 0.023776
0.457404 0.003676 0.030776
0.457404 0.010676 0.009776
0.457404 0.010676 0.016776
0.457404 0.010676 0.023776
0.457404 0.010676 0.030776
0.450404 0.024676 -0.018224
0.450404 0.024676 -0.011224
0.450404 0.031676 -0.018224
0.450404 0.031676 -0.011224
0.450404 0.024676 -0.004224
0.450404 0.024676 0.002776
0.450404 0.031676 -0.004224
0.450404 0.031676 0.002776
0.443404 0.038676 -0.018224
0.443404 0.038676 -0.011224
0.443404 0.045676 -0.018224
0.443404 0.045676 -0.011224
0.443404 0.038676 -0.004224
0.443404 0.038676 0.002776
0.443404 0.045676 -0.004224
0.443404 0.045676 0.002776
0.450404 0.024676 0.009776
0.450404 0.024676 0.016776
0.450404 0.031676 0.009776
0.450404 0.031676 0.016776
0.450404 0.024676 0.023776
0.450404 0.024676 0.030776
0.450404 0.031676 0.023776
0.450404 0.031676 0.030776
0.443404 0.038676 0.009776
0.443404 0.038676 0.016776
0.443404 0.045676 0.016776
0.443404 0.038676 0.023776
0.443404 0.038676 0.030776
0.443404 0.045676 0.023776
0.443404 0.045676 0.030776
0.436404 -0.059324 0.135776
0.436404 -0.059324 0.142776
0.436404 -0.052324 0.135776
0.436404 -0.052324 0.142776
0.436404 -0.045324 0.135776
0.436404 -0.045324 0.142776
0.436404 -0.031324 0.128776
0.436404 -0.024324 0.128776
0.429404 -0.031324 0.142776
0.429404 -0.024324 0.142776
0.436404 -0.031324 0.135776
0.436404 -0.024324 0.135776
0.436404 -0.017324 0.128776
0.436404 -0.010324 0.121776
0.436404 -0.010324 0.128776
0.429404 -0.017324 0.135776
0.429404 -0.017324 0.142776
0.429404 -0.010324 0.135776
0.429404 -0.010324 0.142776
0.436404 0.045676 0.037776
0.436404 0.045676 0.044776
0.436404 0.045676 0.051776
0.436404 0.045676 0.058776
0.436404 0.031676 0.086776
0.436404 0.038676 0.065776
0.436404 0.038676 0.072776
0.436404 0.045676 0.065776
0.436404 0.045676 0.072776
0.429404 0.045676 0.086776
0.436404 0.038676 0.079776
0.436404 0.038676 0.086776
0.436404 0.045676 0.079776
0.408404 0.038676 0.142776
