ply
format ascii 1.0
element vertex 1698
property float x
property float y
property float z
end_header
0.330904 -0.263824 0.217276
0.342904 -0.263824 0.205276
0.354904 -0.299824 0.181276
0.354904 -0.287824 0.181276
0.366904 -0.287824 0.181276
0.354904 -0.275824 0.181276
0.354904 -0.275824 0.193276
0.354904 -0.263824 0.193276
0.366904 -0.275824 0.181276
0.366904 -0.263824 0.181276
0.366904 -0.263824 0.193276
0.354904 -0.263824 0.205276
0.378904 -0.275824 0.181276
0.378904 -0.263824 0.181276
0.378904 -0.263824 0.193276
0.426904 -0.359824 0.085276
0.426904 -0.347824 0.085276
0.426904 -0.347824 0.097276
0.438904 -0.347824 0.085276
0.438904 -0.347824 0.097276
0.426904 -0.347824 0.109276
0.426904 -0.335824 0.109276
0.426904 -0.335824 0.121276
0.438904 -0.335824 0.109276
0.438904 -0.335824 0.121276
0.438904 -0.323824 0.121276
0.450904 -0.347824 0.085276
0.450904 -0.335824 0.097276
0.462904 -0.335824 0.085276
0.462904 -0.335824 0.097276
0.450904 -0.335824 0.109276
0.462904 -0.323824 0.097276
0.450904 -0.323824 0.121276
0.462904 -0.323824 0.109276
0.462904 -0.323824 0.121276
0.462904 -0.311824 0.121276
0.426904 -0.323824 0.133276
0.426904 -0.311824 0.145276
0.438904 -0.323824 0.133276
0.438904 -0.311824 0.133276
0.438904 -0.311824 0.145276
0.450904 -0.311824 0.133276
0.462904 -0.311824 0.133276
0.426904 -0.299824 0.145276
0.426904 -0.287824 0.145276
0.438904 -0.299824 0.145276
0.438904 -0.287824 0.145276
0.438904 -0.287824 0.157276
0.426904 -0.275824 0.145276
0.426904 -0.263824 0.145276
0.438904 -0.275824 0.145276
0.438904 -0.263824 0.145276
0.438904 -0.275824 0.157276
0.450904 -0.299824 0.145276
0.450904 -0.287824 0.145276
0.462904 -0.299824 0.133276
0.462904 -0.299824 0.145276
0.462904 -0.287824 0.145276
0.450904 -0.263824 0.145276
0.462904 -0.275824 0.145276
0.462904 -0.263824 0.145276
0.450904 -0.275824 0.157276
0.474904 -0.335824 0.085276
0.474904 -0.323824 0.085276
0.474904 -0.323824 0.097276
0.486904 -0.323824 0.085276
0.486904 -0.311824 0.097276
0.474904 -0.323824 0.109276
0.474904 -0.311824 0.109276
0.474904 -0.311824 0.121276
0.486904 -0.311824 0.109276
0.498904 -0.311824 0.085276
0.498904 -0.311824 0.097276
0.474904 -0.299824 0.121276
0.486904 -0.299824 0.109276
0.486904 -0.299824 0.121276
0.486904 -0.287824 0.121276
0.498904 -0.299824 0.097276
0.510904 -0.299824 0.085276
0.510904 -0.287824 0.085276
0.510904 -0.287824 0.097276
0.498904 -0.299824 0.109276
0.498904 -0.287824 0.109276
0.498904 -0.287824 0.121276
0.510904 -0.287824 0.109276
0.498904 -0.275824 0.121276
0.498904 -0.263824 0.121276
0.510904 -0.275824 0.109276
0.510904 -0.275824 0.121276
0.510904 -0.263824 0.121276
0.474904 -0.287824 0.133276
0.474904 -0.287824 0.145276
0.486904 -0.287824 0.133276
0.474904 -0.275824 0.133276
0.474904 -0.275824 0.145276
0.474904 -0.263824 0.145276
0.486904 -0.275824 0.133276
0.486904 -0.263824 0.133276
0.486904 -0.263824 0.145276
0.498904 -0.263824 0.133276
0.522904 -0.287824 -0.046724
0.522904 -0.299824 -0.034724
0.522904 -0.299824 -0.022724
0.522904 -0.287824 -0.034724
0.534904 -0.287824 -0.022724
0.522904 -0.275824 -0.058724
0.522904 -0.275824 -0.046724
0.522904 -0.263824 -0.058724
0.522904 -0.263824 -0.046724
0.534904 -0.263824 -0.046724
0.534904 -0.275824 -0.034724
0.534904 -0.275824 -0.022724
0.534904 -0.263824 -0.034724
0.534904 -0.263824 -0.022724
0.546904 -0.263824 -0.022724
0.522904 -0.299824 -0.010724
0.522904 -0.299824 0.001276
0.534904 -0.299824 -0.010724
0.534904 -0.299824 0.001276
0.534904 -0.287824 -0.010724
0.534904 -0.287824 0.001276
0.522904 -0.299824 0.013276
0.522904 -0.299824 0.025276
0.534904 -0.299824 0.013276
0.534904 -0.299824 0.025276
0.534904 -0.287824 0.013276
0.534904 -0.287824 0.025276
0.534904 -0.275824 -0.010724
0.546904 -0.275824 -0.010724
0.546904 -0.275824 0.001276
0.546904 -0.263824 -0.010724
0.546904 -0.263824 0.001276
0.546904 -0.275824 0.013276
0.546904 -0.275824 0.025276
0.546904 -0.263824 0.013276
0.546904 -0.263824 0.025276
0.522904 -0.299824 0.037276
0.522904 -0.299824 0.049276
0.534904 -0.299824 0.037276
0.534904 -0.299824 0.049276
0.534904 -0.287824 0.037276
0.534904 -0.287824 0.049276
0.522904 -0.299824 0.061276
0.522904 -0.299824 0.073276
0.534904 -0.299824 0.061276
0.534904 -0.287824 0.061276
0.534904 -0.287824 0.073276
0.534904 -0.275824 0.073276
0.546904 -0.275824 0.037276
0.546904 -0.275824 0.049276
0.546904 -0.263824 0.037276
0.546904 -0.263824 0.049276
0.546904 -0.275824 0.061276
0.546904 -0.263824 0.061276
0.546904 -0.263824 0.073276
0.522904 -0.287824 0.085276
0.522904 -0.287824 0.097276
0.522904 -0.275824 0.097276
0.534904 -0.275824 0.085276
0.534904 -0.263824 0.085276
0.534904 -0.263824 0.097276
0.522904 -0.275824 0.109276
0.522904 -0.263824 0.109276
0.546904 -0.263824 0.085276
0.330904 -0.251824 -0.214724
0.330904 -0.239824 -0.214724
0.330904 -0.227824 -0.214724
0.330904 -0.215824 -0.214724
0.330904 -0.203824 -0.214724
0.330904 -0.191824 -0.214724
0.330904 -0.179824 -0.214724
0.330904 -0.167824 -0.214724
0.330904 -0.251824 -0.202724
0.342904 -0.251824 -0.202724
0.342904 -0.251824 -0.190724
0.342904 -0.239824 -0.202724
0.342904 -0.239824 -0.190724
0.342904 -0.227824 -0.202724
0.342904 -0.215824 -0.202724
0.354904 -0.251824 -0.178724
0.354904 -0.251824 -0.166724
0.354904 -0.239824 -0.178724
0.366904 -0.251824 -0.166724
0.366904 -0.239824 -0.166724
0.354904 -0.227824 -0.190724
0.354904 -0.215824 -0.202724
0.354904 -0.215824 -0.190724
0.366904 -0.215824 -0.190724
0.354904 -0.227824 -0.178724
0.354904 -0.215824 -0.178724
0.366904 -0.227824 -0.178724
0.366904 -0.215824 -0.178724
0.366904 -0.251824 -0.154724
0.330904 -0.191824 -0.202724
0.342904 -0.203824 -0.202724
0.342904 -0.191824 -0.202724
0.342904 -0.191824 -0.190724
0.342904 -0.179824 -0.202724
0.342904 -0.167824 -0.202724
0.354904 -0.203824 -0.190724
0.354904 -0.191824 -0.190724
0.354904 -0.179824 -0.202724
0.354904 -0.179824 -0.190724
0.354904 -0.167824 -0.202724
0.366904 -0.179824 -0.190724
0.366904 -0.167824 -0.190724
0.366904 -0.167824 -0.178724
0.378904 -0.227824 -0.166724
0.378904 -0.215824 -0.178724
0.378904 -0.215824 -0.166724
0.378904 -0.251824 -0.154724
0.378904 -0.251824 -0.142724
0.378904 -0.239824 -0.154724
0.378904 -0.239824 -0.142724
0.390904 -0.239824 -0.142724
0.390904 -0.251824 -0.130724
0.390904 -0.239824 -0.130724
0.378904 -0.227824 -0.154724
0.390904 -0.227824 -0.154724
0.390904 -0.227824 -0.142724
0.390904 -0.215824 -0.154724
0.390904 -0.215824 -0.142724
0.402904 -0.251824 -0.118724
0.402904 -0.239824 -0.130724
0.402904 -0.239824 -0.118724
0.402904 -0.227824 -0.142724
0.402904 -0.215824 -0.142724
0.402904 -0.227824 -0.130724
0.402904 -0.215824 -0.130724
0.414904 -0.227824 -0.118724
0.414904 -0.215824 -0.130724
0.414904 -0.215824 -0.118724
0.378904 -0.203824 -0.178724
0.378904 -0.203824 -0.166724
0.378904 -0.191824 -0.178724
0.378904 -0.191824 -0.166724
0.390904 -0.203824 -0.166724
0.390904 -0.191824 -0.166724
0.378904 -0.179824 -0.178724
0.378904 -0.179824 -0.166724
0.378904 -0.167824 -0.178724
0.378904 -0.167824 -0.166724
0.390904 -0.179824 -0.166724
0.390904 -0.167824 -0.166724
0.390904 -0.203824 -0.154724
0.390904 -0.191824 -0.154724
0.390904 -0.179824 -0.154724
0.390904 -0.167824 -0.154724
0.402904 -0.203824 -0.142724
0.402904 -0.191824 -0.154724
0.402904 -0.191824 -0.142724
0.414904 -0.191824 -0.142724
0.414904 -0.203824 -0.130724
0.414904 -0.203824 -0.118724
0.414904 -0.191824 -0.130724
0.402904 -0.179824 -0.154724
0.402904 -0.179824 -0.142724
0.402904 -0.167824 -0.154724
0.402904 -0.167824 -0.142724
0.414904 -0.179824 -0.142724
0.414904 -0.167824 -0.142724
0.414904 -0.179824 -0.130724
0.330904 -0.155824 -0.226724
0.330904 -0.155824 -0.214724
0.330904 -0.143824 -0.226724
0.330904 -0.143824 -0.214724
0.342904 -0.155824 -0.214724
0.342904 -0.143824 -0.214724
0.330904 -0.131824 -0.226724
0.330904 -0.131824 -0.214724
0.330904 -0.119824 -0.226724
0.330904 -0.119824 -0.214724
0.342904 -0.131824 -0.214724
0.342904 -0.119824 -0.214724
0.330904 -0.107824 -0.214724
0.330904 -0.095824 -0.214724
0.342904 -0.107824 -0.214724
0.342904 -0.095824 -0.214724
0.330904 -0.083824 -0.214724
0.330904 -0.071824 -0.214724
0.342904 -0.155824 -0.202724
0.342904 -0.119824 -0.202724
0.354904 -0.155824 -0.202724
0.354904 -0.143824 -0.202724
0.366904 -0.155824 -0.190724
0.366904 -0.143824 -0.202724
0.366904 -0.143824 -0.190724
0.366904 -0.143824 -0.178724
0.354904 -0.131824 -0.202724
0.354904 -0.119824 -0.202724
0.366904 -0.131824 -0.202724
0.366904 -0.131824 -0.190724
0.366904 -0.119824 -0.190724
0.342904 -0.107824 -0.202724
0.342904 -0.095824 -0.202724
0.342904 -0.083824 -0.202724
0.342904 -0.071824 -0.202724
0.354904 -0.107824 -0.202724
0.354904 -0.107824 -0.190724
0.354904 -0.095824 -0.202724
0.354904 -0.095824 -0.190724
0.366904 -0.107824 -0.190724
0.366904 -0.095824 -0.190724
0.354904 -0.083824 -0.202724
0.354904 -0.083824 -0.190724
0.354904 -0.071824 -0.202724
0.354904 -0.071824 -0.190724
0.366904 -0.083824 -0.190724
0.366904 -0.071824 -0.190724
0.366904 -0.083824 -0.178724
0.366904 -0.071824 -0.178724
0.378904 -0.155824 -0.178724
0.378904 -0.155824 -0.166724
0.378904 -0.143824 -0.178724
0.378904 -0.143824 -0.166724
0.390904 -0.155824 -0.166724
0.390904 -0.143824 -0.166724
0.378904 -0.131824 -0.178724
0.378904 -0.131824 -0.166724
0.378904 -0.119824 -0.178724
0.390904 -0.131824 -0.166724
0.390904 -0.119824 -0.166724
0.390904 -0.155824 -0.154724
0.390904 -0.143824 -0.154724
0.390904 -0.131824 -0.154724
0.390904 -0.119824 -0.154724
0.402904 -0.155824 -0.154724
0.402904 -0.155824 -0.142724
0.402904 -0.143824 -0.154724
0.402904 -0.143824 -0.142724
0.414904 -0.155824 -0.142724
0.414904 -0.143824 -0.142724
0.414904 -0.155824 -0.130724
0.414904 -0.143824 -0.130724
0.402904 -0.131824 -0.154724
0.402904 -0.131824 -0.142724
0.402904 -0.119824 -0.154724
0.402904 -0.119824 -0.142724
0.414904 -0.131824 -0.130724
0.414904 -0.119824 -0.130724
0.378904 -0.107824 -0.178724
0.378904 -0.095824 -0.178724
0.390904 -0.107824 -0.166724
0.390904 -0.095824 -0.178724
0.390904 -0.095824 -0.166724
0.378904 -0.083824 -0.178724
0.378904 -0.071824 -0.178724
0.390904 -0.083824 -0.178724
0.390904 -0.071824 -0.178724
0.402904 -0.095824 -0.166724
0.402904 -0.083824 -0.166724
0.402904 -0.071824 -0.166724
0.402904 -0.107824 -0.154724
0.402904 -0.095824 -0.154724
0.414904 -0.107824 -0.142724
0.414904 -0.095824 -0.154724
0.414904 -0.095824 -0.142724
0.414904 -0.107824 -0.130724
0.402904 -0.083824 -0.154724
0.414904 -0.083824 -0.154724
0.414904 -0.083824 -0.142724
0.414904 -0.071824 -0.154724
0.426904 -0.203824 -0.118724
0.426904 -0.191824 -0.118724
0.426904 -0.179824 -0.130724
0.426904 -0.179824 -0.118724
0.426904 -0.167824 -0.130724
0.426904 -0.167824 -0.118724
0.426904 -0.155824 -0.130724
0.426904 -0.155824 -0.118724
0.426904 -0.143824 -0.130724
0.426904 -0.143824 -0.118724
0.438904 -0.155824 -0.118724
0.438904 -0.143824 -0.118724
0.426904 -0.131824 -0.130724
0.426904 -0.131824 -0.118724
0.426904 -0.119824 -0.118724
0.426904 -0.107824 -0.130724
0.426904 -0.107824 -0.118724
0.426904 -0.095824 -0.130724
0.426904 -0.095824 -0.118724
0.438904 -0.095824 -0.118724
0.426904 -0.083824 -0.142724
0.426904 -0.071824 -0.142724
0.426904 -0.083824 -0.130724
0.426904 -0.071824 -0.130724
0.438904 -0.083824 -0.118724
0.438904 -0.071824 -0.130724
0.438904 -0.071824 -0.118724
0.330904 -0.059824 -0.214724
0.330904 -0.047824 -0.214724
0.342904 -0.059824 -0.202724
0.342904 -0.047824 -0.202724
0.330904 -0.035824 -0.202724
0.330904 -0.023824 -0.202724
0.342904 -0.035824 -0.202724
0.342904 -0.023824 -0.202724
0.342904 -0.023824 -0.190724
0.354904 -0.059824 -0.202724
0.354904 -0.059824 -0.190724
0.354904 -0.047824 -0.190724
0.366904 -0.059824 -0.190724
0.366904 -0.047824 -0.190724
0.366904 -0.059824 -0.178724
0.366904 -0.047824 -0.178724
0.354904 -0.035824 -0.190724
0.354904 -0.023824 -0.190724
0.366904 -0.035824 -0.190724
0.366904 -0.023824 -0.190724
0.366904 -0.035824 -0.178724
0.366904 -0.023824 -0.178724
0.330904 -0.011824 -0.202724
0.330904 -0.011824 -0.190724
0.330904 0.000176 -0.190724
0.342904 -0.011824 -0.190724
0.342904 0.000176 -0.190724
0.342904 0.000176 -0.178724
0.330904 0.012176 -0.190724
0.330904 0.024176 -0.190724
0.342904 0.012176 -0.190724
0.330904 0.024176 -0.178724
0.342904 0.012176 -0.178724
0.342904 0.024176 -0.178724
0.354904 -0.011824 -0.190724
0.354904 -0.011824 -0.178724
0.354904 0.000176 -0.178724
0.366904 -0.011824 -0.178724
0.366904 -0.011824 -0.166724
0.366904 0.000176 -0.178724
0.366904 0.000176 -0.166724
0.354904 0.012176 -0.178724
0.354904 0.012176 -0.166724
0.354904 0.024176 -0.178724
0.354904 0.024176 -0.166724
0.366904 0.012176 -0.166724
0.366904 0.024176 -0.166724
0.366904 0.012176 -0.154724
0.366904 0.024176 -0.154724
0.378904 -0.059824 -0.178724
0.378904 -0.047824 -0.178724
0.390904 -0.059824 -0.178724
0.390904 -0.047824 -0.178724
0.390904 -0.047824 -0.166724
0.378904 -0.035824 -0.178724
0.378904 -0.023824 -0.178724
0.378904 -0.023824 -0.166724
0.390904 -0.035824 -0.178724
0.390904 -0.035824 -0.166724
0.390904 -0.023824 -0.166724
0.402904 -0.059824 -0.166724
0.402904 -0.047824 -0.166724
0.402904 -0.035824 -0.166724
0.402904 -0.023824 -0.166724
0.414904 -0.059824 -0.154724
0.414904 -0.047824 -0.154724
0.414904 -0.047824 -0.142724
0.402904 -0.035824 -0.154724
0.402904 -0.023824 -0.154724
0.402904 -0.023824 -0.142724
0.414904 -0.035824 -0.154724
0.414904 -0.035824 -0.142724
0.414904 -0.023824 -0.142724
0.414904 -0.023824 -0.130724
0.378904 -0.011824 -0.178724
0.378904 -0.011824 -0.166724
0.378904 0.000176 -0.166724
0.390904 -0.011824 -0.166724
0.378904 0.000176 -0.154724
0.390904 -0.011824 -0.154724
0.390904 0.000176 -0.154724
0.390904 0.000176 -0.142724
0.378904 0.012176 -0.154724
0.378904 0.024176 -0.154724
0.378904 0.024176 -0.142724
0.390904 0.012176 -0.142724
0.390904 0.024176 -0.142724
0.402904 -0.011824 -0.154724
0.402904 -0.011824 -0.142724
0.402904 0.000176 -0.142724
0.402904 -0.011824 -0.130724
0.402904 0.000176 -0.130724
0.414904 -0.011824 -0.130724
0.414904 -0.011824 -0.118724
0.414904 0.000176 -0.118724
0.402904 0.012176 -0.130724
0.402904 0.024176 -0.130724
0.414904 0.012176 -0.118724
0.414904 0.024176 -0.118724
0.330904 0.036176 -0.190724
0.330904 0.036176 -0.178724
0.330904 0.048176 -0.178724
0.330904 0.048176 -0.166724
0.342904 0.036176 -0.178724
0.342904 0.036176 -0.166724
0.342904 0.048176 -0.166724
0.330904 0.060176 -0.166724
0.330904 0.072176 -0.166724
0.342904 0.060176 -0.166724
0.354904 0.036176 -0.166724
0.354904 0.048176 -0.166724
0.330904 0.072176 -0.154724
0.342904 0.060176 -0.154724
0.342904 0.072176 -0.154724
0.354904 0.048176 -0.154724
0.366904 0.036176 -0.154724
0.366904 0.048176 -0.154724
0.354904 0.060176 -0.154724
0.354904 0.072176 -0.154724
0.354904 0.072176 -0.142724
0.366904 0.060176 -0.154724
0.366904 0.060176 -0.142724
0.366904 0.072176 -0.142724
0.366904 0.072176 -0.130724
0.330904 0.084176 -0.154724
0.330904 0.084176 -0.142724
0.330904 0.096176 -0.142724
0.342904 0.084176 -0.154724
0.342904 0.084176 -0.142724
0.342904 0.096176 -0.142724
0.342904 0.096176 -0.130724
0.330904 0.108176 -0.142724
0.330904 0.108176 -0.130724
0.330904 0.120176 -0.130724
0.330904 0.120176 -0.118724
0.342904 0.108176 -0.130724
0.342904 0.120176 -0.118724
0.354904 0.084176 -0.142724
0.354904 0.096176 -0.130724
0.366904 0.084176 -0.130724
0.366904 0.096176 -0.130724
0.366904 0.096176 -0.118724
0.354904 0.108176 -0.130724
0.354904 0.108176 -0.118724
0.354904 0.120176 -0.118724
0.366904 0.108176 -0.118724
0.378904 0.036176 -0.154724
0.378904 0.036176 -0.142724
0.378904 0.048176 -0.142724
0.390904 0.036176 -0.142724
0.390904 0.048176 -0.142724
0.390904 0.048176 -0.130724
0.378904 0.060176 -0.142724
0.378904 0.060176 -0.130724
0.378904 0.072176 -0.130724
0.378904 0.072176 -0.118724
0.390904 0.060176 -0.130724
0.390904 0.060176 -0.118724
0.390904 0.072176 -0.118724
0.402904 0.036176 -0.130724
0.402904 0.036176 -0.118724
0.402904 0.048176 -0.130724
0.402904 0.048176 -0.118724
0.414904 0.036176 -0.118724
0.414904 0.048176 -0.118724
0.402904 0.060176 -0.118724
0.378904 0.084176 -0.118724
0.378904 0.096176 -0.118724
0.426904 -0.059824 -0.142724
0.426904 -0.047824 -0.142724
0.426904 -0.059824 -0.130724
0.426904 -0.047824 -0.130724
0.438904 -0.059824 -0.130724
0.438904 -0.059824 -0.118724
0.438904 -0.047824 -0.130724
0.438904 -0.047824 -0.118724
0.426904 -0.035824 -0.130724
0.426904 -0.023824 -0.130724
0.426904 -0.023824 -0.118724
0.438904 -0.035824 -0.118724
0.438904 -0.023824 -0.118724
0.426904 -0.011824 -0.118724
0.402904 -0.251824 -0.106724
0.414904 -0.251824 -0.094724
0.414904 -0.239824 -0.106724
0.414904 -0.239824 -0.094724
0.414904 -0.227824 -0.106724
0.414904 -0.227824 -0.094724
0.426904 -0.251824 -0.094724
0.426904 -0.239824 -0.094724
0.438904 -0.251824 -0.094724
0.438904 -0.239824 -0.094724
0.426904 -0.239824 -0.082724
0.426904 -0.227824 -0.106724
0.426904 -0.227824 -0.094724
0.426904 -0.215824 -0.106724
0.426904 -0.215824 -0.094724
0.426904 -0.227824 -0.082724
0.426904 -0.215824 -0.082724
0.438904 -0.227824 -0.082724
0.438904 -0.215824 -0.082724
0.438904 -0.215824 -0.070724
0.450904 -0.251824 -0.094724
0.450904 -0.239824 -0.094724
0.462904 -0.251824 -0.094724
0.462904 -0.239824 -0.094724
0.462904 -0.227824 -0.094724
0.450904 -0.227824 -0.082724
0.450904 -0.215824 -0.082724
0.450904 -0.215824 -0.070724
0.462904 -0.227824 -0.082724
0.462904 -0.215824 -0.082724
0.462904 -0.215824 -0.070724
0.426904 -0.203824 -0.106724
0.426904 -0.203824 -0.094724
0.426904 -0.191824 -0.106724
0.438904 -0.191824 -0.106724
0.438904 -0.191824 -0.094724
0.438904 -0.203824 -0.082724
0.438904 -0.203824 -0.070724
0.438904 -0.191824 -0.082724
0.438904 -0.191824 -0.070724
0.438904 -0.179824 -0.106724
0.438904 -0.179824 -0.094724
0.438904 -0.167824 -0.106724
0.438904 -0.167824 -0.094724
0.438904 -0.179824 -0.082724
0.438904 -0.179824 -0.070724
0.438904 -0.167824 -0.082724
0.450904 -0.203824 -0.070724
0.450904 -0.191824 -0.070724
0.462904 -0.203824 -0.070724
0.450904 -0.179824 -0.070724
0.450904 -0.167824 -0.070724
0.450904 -0.191824 -0.058724
0.462904 -0.191824 -0.058724
0.450904 -0.179824 -0.058724
0.450904 -0.167824 -0.058724
0.462904 -0.179824 -0.046724
0.462904 -0.167824 -0.046724
0.474904 -0.251824 -0.094724
0.474904 -0.239824 -0.094724
0.486904 -0.251824 -0.094724
0.486904 -0.239824 -0.094724
0.474904 -0.227824 -0.094724
0.486904 -0.227824 -0.094724
0.474904 -0.227824 -0.082724
0.474904 -0.215824 -0.082724
0.486904 -0.227824 -0.082724
0.486904 -0.215824 -0.082724
0.498904 -0.251824 -0.082724
0.498904 -0.239824 -0.082724
0.510904 -0.251824 -0.082724
0.510904 -0.251824 -0.070724
0.510904 -0.239824 -0.082724
0.510904 -0.239824 -0.070724
0.498904 -0.227824 -0.082724
0.498904 -0.215824 -0.082724
0.510904 -0.227824 -0.082724
0.510904 -0.215824 -0.082724
0.510904 -0.215824 -0.070724
0.474904 -0.203824 -0.070724
0.474904 -0.191824 -0.070724
0.486904 -0.203824 -0.070724
0.486904 -0.191824 -0.070724
0.498904 -0.203824 -0.070724
0.498904 -0.191824 -0.070724
0.510904 -0.203824 -0.070724
0.474904 -0.191824 -0.058724
0.486904 -0.191824 -0.058724
0.474904 -0.179824 -0.058724
0.474904 -0.167824 -0.046724
0.486904 -0.179824 -0.058724
0.486904 -0.167824 -0.046724
0.498904 -0.191824 -0.058724
0.510904 -0.191824 -0.058724
0.498904 -0.179824 -0.058724
0.498904 -0.167824 -0.046724
0.510904 -0.179824 -0.058724
0.510904 -0.179824 -0.046724
0.510904 -0.167824 -0.046724
0.438904 -0.155824 -0.106724
0.438904 -0.155824 -0.094724
0.438904 -0.143824 -0.106724
0.438904 -0.143824 -0.094724
0.438904 -0.155824 -0.082724
0.438904 -0.131824 -0.106724
0.438904 -0.131824 -0.094724
0.438904 -0.119824 -0.106724
0.438904 -0.119824 -0.094724
0.450904 -0.155824 -0.082724
0.450904 -0.155824 -0.070724
0.450904 -0.143824 -0.082724
0.450904 -0.143824 -0.070724
0.450904 -0.131824 -0.082724
0.450904 -0.131824 -0.070724
0.450904 -0.119824 -0.082724
0.450904 -0.119824 -0.070724
0.450904 -0.155824 -0.058724
0.450904 -0.143824 -0.058724
0.462904 -0.155824 -0.046724
0.462904 -0.143824 -0.058724
0.462904 -0.143824 -0.046724
0.462904 -0.155824 -0.034724
0.462904 -0.143824 -0.034724
0.462904 -0.131824 -0.058724
0.462904 -0.131824 -0.046724
0.462904 -0.119824 -0.058724
0.462904 -0.119824 -0.046724
0.462904 -0.131824 -0.034724
0.462904 -0.131824 -0.022724
0.462904 -0.119824 -0.034724
0.462904 -0.119824 -0.022724
0.438904 -0.107824 -0.106724
0.438904 -0.107824 -0.094724
0.438904 -0.095824 -0.106724
0.438904 -0.095824 -0.094724
0.438904 -0.083824 -0.106724
0.438904 -0.071824 -0.106724
0.450904 -0.107824 -0.082724
0.450904 -0.107824 -0.070724
0.450904 -0.095824 -0.082724
0.450904 -0.095824 -0.070724
0.462904 -0.107824 -0.070724
0.450904 -0.083824 -0.094724
0.450904 -0.071824 -0.094724
0.450904 -0.083824 -0.082724
0.450904 -0.083824 -0.070724
0.450904 -0.071824 -0.082724
0.450904 -0.071824 -0.070724
0.462904 -0.107824 -0.058724
0.462904 -0.107824 -0.046724
0.462904 -0.095824 -0.058724
0.462904 -0.095824 -0.046724
0.462904 -0.107824 -0.034724
0.462904 -0.107824 -0.022724
0.462904 -0.095824 -0.034724
0.462904 -0.095824 -0.022724
0.450904 -0.083824 -0.058724
0.450904 -0.071824 -0.058724
0.462904 -0.083824 -0.058724
0.462904 -0.083824 -0.046724
0.462904 -0.071824 -0.058724
0.462904 -0.071824 -0.046724
0.462904 -0.083824 -0.034724
0.462904 -0.083824 -0.022724
0.462904 -0.071824 -0.034724
0.462904 -0.071824 -0.022724
0.474904 -0.155824 -0.034724
0.474904 -0.155824 -0.022724
0.474904 -0.143824 -0.022724
0.486904 -0.155824 -0.034724
0.486904 -0.155824 -0.022724
0.474904 -0.131824 -0.022724
0.474904 -0.119824 -0.022724
0.498904 -0.155824 -0.034724
0.498904 -0.155824 -0.022724
0.510904 -0.155824 -0.034724
0.510904 -0.155824 -0.022724
0.462904 -0.155824 0.073276
0.462904 -0.143824 0.073276
0.462904 -0.131824 0.061276
0.462904 -0.131824 0.073276
0.462904 -0.119824 0.061276
0.462904 -0.119824 0.073276
0.462904 -0.071824 -0.010724
0.462904 -0.071824 0.001276
0.462904 -0.083824 0.025276
0.462904 -0.071824 0.013276
0.462904 -0.071824 0.025276
0.462904 -0.107824 0.037276
0.462904 -0.107824 0.049276
0.462904 -0.095824 0.037276
0.462904 -0.095824 0.049276
0.462904 -0.107824 0.061276
0.462904 -0.107824 0.073276
0.462904 -0.095824 0.061276
0.462904 -0.095824 0.073276
0.462904 -0.083824 0.037276
0.462904 -0.083824 0.049276
0.462904 -0.071824 0.037276
0.462904 -0.071824 0.049276
0.462904 -0.083824 0.061276
0.462904 -0.083824 0.073276
0.462904 -0.071824 0.061276
0.462904 -0.071824 0.073276
0.474904 -0.143824 -0.010724
0.474904 -0.143824 0.001276
0.486904 -0.143824 -0.010724
0.486904 -0.143824 0.001276
0.474904 -0.143824 0.013276
0.474904 -0.143824 0.025276
0.486904 -0.143824 0.013276
0.486904 -0.143824 0.025276
0.474904 -0.131824 -0.010724
0.474904 -0.131824 0.001276
0.474904 -0.119824 -0.010724
0.474904 -0.119824 0.001276
0.474904 -0.131824 0.013276
0.474904 -0.131824 0.025276
0.474904 -0.119824 0.013276
0.474904 -0.119824 0.025276
0.498904 -0.143824 -0.010724
0.498904 -0.143824 0.001276
0.510904 -0.143824 -0.010724
0.510904 -0.143824 0.001276
0.498904 -0.143824 0.013276
0.498904 -0.143824 0.025276
0.510904 -0.143824 0.013276
0.510904 -0.143824 0.025276
0.474904 -0.143824 0.037276
0.474904 -0.143824 0.049276
0.486904 -0.143824 0.037276
0.486904 -0.143824 0.049276
0.474904 -0.155824 0.073276
0.474904 -0.143824 0.061276
0.486904 -0.155824 0.073276
0.486904 -0.143824 0.061276
0.486904 -0.143824 0.073276
0.474904 -0.131824 0.037276
0.474904 -0.131824 0.049276
0.474904 -0.119824 0.037276
0.474904 -0.119824 0.049276
0.474904 -0.131824 0.061276
0.498904 -0.143824 0.037276
0.498904 -0.143824 0.049276
0.510904 -0.143824 0.037276
0.510904 -0.143824 0.049276
0.498904 -0.143824 0.061276
0.498904 -0.143824 0.073276
0.510904 -0.143824 0.061276
0.510904 -0.143824 0.073276
0.474904 -0.107824 -0.010724
0.474904 -0.107824 0.001276
0.474904 -0.095824 -0.010724
0.474904 -0.095824 0.001276
0.474904 -0.107824 0.013276
0.474904 -0.107824 0.025276
0.474904 -0.095824 0.013276
0.474904 -0.095824 0.025276
0.474904 -0.083824 -0.010724
0.474904 -0.083824 0.001276
0.474904 -0.071824 0.001276
0.474904 -0.083824 0.013276
0.474904 -0.107824 0.037276
0.474904 -0.107824 0.049276
0.390904 -0.251824 0.169276
0.414904 -0.251824 0.145276
0.414904 -0.239824 0.145276
0.402904 -0.251824 0.157276
0.402904 -0.251824 0.169276
0.402904 -0.239824 0.157276
0.402904 -0.239824 0.169276
0.414904 -0.239824 0.157276
0.414904 -0.227824 0.145276
0.402904 -0.227824 0.169276
0.414904 -0.227824 0.157276
0.414904 -0.227824 0.169276
0.414904 -0.215824 0.157276
0.414904 -0.215824 0.169276
0.414904 -0.203824 0.157276
0.414904 -0.203824 0.169276
0.414904 -0.191824 0.169276
0.414904 -0.179824 0.169276
0.414904 -0.167824 0.169276
0.330904 -0.251824 0.217276
0.342904 -0.251824 0.217276
0.342904 -0.239824 0.217276
0.342904 -0.227824 0.217276
0.366904 -0.251824 0.193276
0.366904 -0.239824 0.193276
0.354904 -0.251824 0.205276
0.354904 -0.239824 0.205276
0.354904 -0.239824 0.217276
0.366904 -0.239824 0.205276
0.354904 -0.227824 0.205276
0.354904 -0.227824 0.217276
0.354904 -0.215824 0.217276
0.366904 -0.227824 0.205276
0.366904 -0.215824 0.205276
0.330904 -0.251824 0.229276
0.330904 -0.239824 0.229276
0.330904 -0.227824 0.229276
0.330904 -0.215824 0.229276
0.342904 -0.227824 0.229276
0.342904 -0.215824 0.229276
0.342904 -0.179824 0.217276
0.342904 -0.167824 0.217276
0.354904 -0.203824 0.217276
0.354904 -0.191824 0.217276
0.366904 -0.203824 0.205276
0.366904 -0.191824 0.205276
0.354904 -0.179824 0.217276
0.354904 -0.167824 0.217276
0.366904 -0.179824 0.205276
0.366904 -0.167824 0.205276
0.330904 -0.203824 0.229276
0.330904 -0.191824 0.229276
0.342904 -0.203824 0.229276
0.342904 -0.191824 0.229276
0.330904 -0.179824 0.229276
0.330904 -0.167824 0.229276
0.330904 -0.167824 0.241276
0.342904 -0.179824 0.229276
0.342904 -0.167824 0.229276
0.378904 -0.251824 0.193276
0.378904 -0.239824 0.193276
0.390904 -0.251824 0.181276
0.390904 -0.239824 0.181276
0.378904 -0.227824 0.193276
0.390904 -0.227824 0.181276
0.390904 -0.227824 0.193276
0.390904 -0.215824 0.193276
0.378904 -0.227824 0.205276
0.378904 -0.215824 0.205276
0.402904 -0.227824 0.181276
0.402904 -0.215824 0.181276
0.390904 -0.203824 0.193276
0.390904 -0.191824 0.193276
0.378904 -0.203824 0.205276
0.378904 -0.191824 0.205276
0.390904 -0.179824 0.193276
0.390904 -0.167824 0.193276
0.378904 -0.179824 0.205276
0.378904 -0.167824 0.205276
0.402904 -0.203824 0.181276
0.402904 -0.203824 0.193276
0.402904 -0.191824 0.181276
0.402904 -0.191824 0.193276
0.414904 -0.191824 0.181276
0.402904 -0.179824 0.181276
0.402904 -0.179824 0.193276
0.402904 -0.167824 0.181276
0.402904 -0.167824 0.193276
0.414904 -0.179824 0.181276
0.414904 -0.167824 0.181276
0.414904 -0.155824 0.169276
0.414904 -0.143824 0.169276
0.414904 -0.131824 0.169276
0.414904 -0.119824 0.169276
0.414904 -0.107824 0.169276
0.414904 -0.095824 0.169276
0.414904 -0.083824 0.169276
0.414904 -0.071824 0.169276
0.342904 -0.155824 0.217276
0.354904 -0.155824 0.217276
0.354904 -0.143824 0.217276
0.366904 -0.155824 0.205276
0.366904 -0.143824 0.205276
0.366904 -0.143824 0.217276
0.354904 -0.131824 0.217276
0.366904 -0.131824 0.217276
0.366904 -0.119824 0.217276
0.330904 -0.155824 0.229276
0.330904 -0.155824 0.241276
0.330904 -0.143824 0.241276
0.342904 -0.155824 0.229276
0.342904 -0.143824 0.229276
0.330904 -0.131824 0.241276
0.342904 -0.131824 0.229276
0.342904 -0.131824 0.241276
0.342904 -0.119824 0.241276
0.330904 -0.131824 0.253276
0.330904 -0.119824 0.253276
0.354904 -0.131824 0.229276
0.354904 -0.119824 0.229276
0.366904 -0.107824 0.217276
0.366904 -0.095824 0.217276
0.366904 -0.083824 0.217276
0.366904 -0.071824 0.217276
0.342904 -0.107824 0.241276
0.342904 -0.095824 0.241276
0.330904 -0.107824 0.253276
0.330904 -0.095824 0.253276
0.342904 -0.095824 0.253276
0.330904 -0.071824 0.241276
0.342904 -0.083824 0.241276
0.342904 -0.071824 0.241276
0.330904 -0.083824 0.253276
0.330904 -0.071824 0.253276
0.354904 -0.107824 0.229276
0.354904 -0.095824 0.229276
0.366904 -0.107824 0.229276
0.366904 -0.095824 0.229276
0.354904 -0.083824 0.229276
0.354904 -0.071824 0.229276
0.390904 -0.155824 0.193276
0.390904 -0.143824 0.193276
0.378904 -0.155824 0.205276
0.378904 -0.143824 0.205276
0.390904 -0.131824 0.193276
0.390904 -0.119824 0.193276
0.378904 -0.131824 0.205276
0.378904 -0.131824 0.217276
0.378904 -0.119824 0.217276
0.390904 -0.131824 0.205276
0.390904 -0.119824 0.205276
0.402904 -0.155824 0.181276
0.402904 -0.155824 0.193276
0.402904 -0.143824 0.181276
0.402904 -0.143824 0.193276
0.402904 -0.131824 0.181276
0.402904 -0.131824 0.193276
0.402904 -0.119824 0.181276
0.402904 -0.119824 0.193276
0.414904 -0.131824 0.181276
0.414904 -0.119824 0.181276
0.390904 -0.107824 0.193276
0.390904 -0.095824 0.193276
0.378904 -0.107824 0.217276
0.378904 -0.095824 0.217276
0.390904 -0.107824 0.205276
0.390904 -0.095824 0.205276
0.390904 -0.083824 0.193276
0.390904 -0.071824 0.193276
0.378904 -0.083824 0.217276
0.378904 -0.071824 0.217276
0.390904 -0.083824 0.205276
0.390904 -0.071824 0.205276
0.402904 -0.107824 0.181276
0.402904 -0.107824 0.193276
0.402904 -0.095824 0.181276
0.402904 -0.095824 0.193276
0.414904 -0.107824 0.181276
0.414904 -0.095824 0.181276
0.402904 -0.083824 0.181276
0.402904 -0.083824 0.193276
0.402904 -0.071824 0.181276
0.402904 -0.071824 0.193276
0.414904 -0.083824 0.181276
0.414904 -0.071824 0.181276
0.450904 -0.215824 0.121276
0.426904 -0.251824 0.145276
0.426904 -0.239824 0.145276
0.438904 -0.251824 0.145276
0.438904 -0.239824 0.145276
0.426904 -0.227824 0.133276
0.426904 -0.227824 0.145276
0.426904 -0.215824 0.133276
0.426904 -0.215824 0.145276
0.438904 -0.227824 0.133276
0.438904 -0.227824 0.145276
0.438904 -0.215824 0.133276
0.450904 -0.251824 0.145276
0.450904 -0.239824 0.145276
0.462904 -0.251824 0.145276
0.462904 -0.239824 0.145276
0.450904 -0.227824 0.145276
0.450904 -0.215824 0.133276
0.462904 -0.227824 0.145276
0.462904 -0.215824 0.133276
0.462904 -0.215824 0.145276
0.438904 -0.203824 0.121276
0.438904 -0.191824 0.121276
0.438904 -0.179824 0.121276
0.438904 -0.167824 0.121276
0.450904 -0.203824 0.121276
0.450904 -0.191824 0.121276
0.462904 -0.203824 0.121276
0.462904 -0.191824 0.121276
0.462904 -0.167824 0.097276
0.450904 -0.179824 0.109276
0.450904 -0.179824 0.121276
0.450904 -0.167824 0.109276
0.462904 -0.179824 0.109276
0.426904 -0.203824 0.133276
0.426904 -0.203824 0.145276
0.426904 -0.191824 0.133276
0.426904 -0.191824 0.145276
0.438904 -0.203824 0.133276
0.438904 -0.191824 0.133276
0.426904 -0.203824 0.157276
0.426904 -0.191824 0.157276
0.426904 -0.179824 0.133276
0.426904 -0.179824 0.145276
0.426904 -0.167824 0.145276
0.438904 -0.179824 0.133276
0.438904 -0.167824 0.133276
0.438904 -0.167824 0.145276
0.426904 -0.179824 0.157276
0.426904 -0.167824 0.157276
0.462904 -0.203824 0.133276
0.510904 -0.251824 0.121276
0.474904 -0.251824 0.145276
0.474904 -0.239824 0.145276
0.486904 -0.251824 0.133276
0.486904 -0.251824 0.145276
0.486904 -0.239824 0.145276
0.474904 -0.227824 0.145276
0.474904 -0.215824 0.133276
0.474904 -0.215824 0.145276
0.486904 -0.227824 0.145276
0.486904 -0.215824 0.133276
0.486904 -0.215824 0.145276
0.498904 -0.251824 0.133276
0.498904 -0.239824 0.133276
0.510904 -0.251824 0.133276
0.510904 -0.239824 0.133276
0.498904 -0.227824 0.133276
0.498904 -0.215824 0.133276
0.510904 -0.227824 0.133276
0.510904 -0.215824 0.133276
0.474904 -0.191824 0.121276
0.486904 -0.191824 0.121276
0.474904 -0.167824 0.097276
0.486904 -0.167824 0.097276
0.474904 -0.179824 0.109276
0.474904 -0.179824 0.121276
0.486904 -0.179824 0.109276
0.486904 -0.179824 0.121276
0.486904 -0.167824 0.109276
0.498904 -0.191824 0.121276
0.510904 -0.203824 0.121276
0.510904 -0.191824 0.121276
0.510904 -0.167824 0.097276
0.498904 -0.179824 0.109276
0.498904 -0.179824 0.121276
0.498904 -0.167824 0.109276
0.510904 -0.179824 0.109276
0.510904 -0.179824 0.121276
0.510904 -0.167824 0.109276
0.474904 -0.203824 0.133276
0.486904 -0.203824 0.133276
0.498904 -0.203824 0.133276
0.450904 -0.155824 0.097276
0.450904 -0.143824 0.097276
0.462904 -0.155824 0.085276
0.462904 -0.155824 0.097276
0.462904 -0.143824 0.085276
0.462904 -0.143824 0.097276
0.450904 -0.155824 0.109276
0.450904 -0.155824 0.121276
0.450904 -0.143824 0.109276
0.450904 -0.143824 0.121276
0.450904 -0.131824 0.097276
0.462904 -0.131824 0.085276
0.462904 -0.131824 0.097276
0.462904 -0.119824 0.085276
0.462904 -0.119824 0.097276
0.450904 -0.131824 0.109276
0.450904 -0.131824 0.121276
0.450904 -0.119824 0.109276
0.450904 -0.119824 0.121276
0.426904 -0.155824 0.145276
0.426904 -0.143824 0.145276
0.438904 -0.155824 0.133276
0.438904 -0.155824 0.145276
0.438904 -0.143824 0.133276
0.438904 -0.143824 0.145276
0.426904 -0.155824 0.157276
0.426904 -0.143824 0.157276
0.426904 -0.131824 0.145276
0.426904 -0.119824 0.145276
0.438904 -0.131824 0.133276
0.438904 -0.131824 0.145276
0.438904 -0.119824 0.133276
0.438904 -0.119824 0.145276
0.426904 -0.131824 0.157276
0.426904 -0.119824 0.157276
0.462904 -0.107824 0.085276
0.462904 -0.107824 0.097276
0.462904 -0.095824 0.085276
0.462904 -0.095824 0.097276
0.450904 -0.107824 0.109276
0.450904 -0.107824 0.121276
0.450904 -0.095824 0.109276
0.450904 -0.095824 0.121276
0.462904 -0.083824 0.085276
0.462904 -0.083824 0.097276
0.462904 -0.071824 0.085276
0.462904 -0.071824 0.097276
0.450904 -0.083824 0.109276
0.450904 -0.083824 0.121276
0.450904 -0.071824 0.109276
0.450904 -0.071824 0.121276
0.426904 -0.107824 0.145276
0.426904 -0.095824 0.145276
0.438904 -0.107824 0.133276
0.438904 -0.107824 0.145276
0.438904 -0.095824 0.133276
0.438904 -0.095824 0.145276
0.426904 -0.107824 0.157276
0.426904 -0.095824 0.157276
0.426904 -0.095824 0.169276
0.426904 -0.071824 0.145276
0.438904 -0.083824 0.133276
0.438904 -0.083824 0.145276
0.438904 -0.071824 0.133276
0.438904 -0.071824 0.145276
0.426904 -0.083824 0.157276
0.426904 -0.083824 0.169276
0.426904 -0.071824 0.157276
0.474904 -0.155824 0.085276
0.486904 -0.155824 0.085276
0.486904 -0.155824 0.097276
0.498904 -0.155824 0.085276
0.498904 -0.155824 0.097276
0.510904 -0.155824 0.085276
0.510904 -0.155824 0.097276
0.414904 0.024176 -0.106724
0.354904 0.120176 -0.106724
0.366904 0.108176 -0.106724
0.366904 0.120176 -0.106724
0.366904 0.120176 -0.094724
0.390904 0.072176 -0.106724
0.414904 0.036176 -0.106724
0.414904 0.048176 -0.106724
0.414904 0.048176 -0.094724
0.402904 0.060176 -0.106724
0.402904 0.060176 -0.094724
0.402904 0.072176 -0.106724
0.402904 0.072176 -0.094724
0.414904 0.060176 -0.106724
0.414904 0.060176 -0.094724
0.402904 0.072176 -0.082724
0.414904 0.060176 -0.082724
0.414904 0.060176 -0.070724
0.414904 0.072176 -0.070724
0.414904 0.060176 -0.058724
0.414904 0.072176 -0.058724
0.414904 0.072176 -0.046724
0.378904 0.096176 -0.106724
0.390904 0.084176 -0.106724
0.390904 0.084176 -0.094724
0.390904 0.096176 -0.094724
0.390904 0.096176 -0.082724
0.390904 0.096176 -0.070724
0.378904 0.108176 -0.106724
0.378904 0.108176 -0.094724
0.378904 0.120176 -0.094724
0.378904 0.120176 -0.082724
0.378904 0.120176 -0.070724
0.390904 0.108176 -0.082724
0.390904 0.108176 -0.070724
0.390904 0.120176 -0.070724
0.402904 0.084176 -0.094724
0.402904 0.084176 -0.082724
0.402904 0.084176 -0.070724
0.402904 0.096176 -0.082724
0.402904 0.096176 -0.070724
0.378904 0.120176 -0.058724
0.390904 0.108176 -0.058724
0.390904 0.120176 -0.058724
0.390904 0.120176 -0.046724
0.390904 0.120176 -0.034724
0.390904 0.120176 -0.022724
0.402904 0.096176 -0.058724
0.402904 0.096176 -0.046724
0.414904 0.084176 -0.058724
0.414904 0.084176 -0.046724
0.414904 0.096176 -0.046724
0.414904 0.084176 -0.034724
0.414904 0.084176 -0.022724
0.414904 0.096176 -0.034724
0.414904 0.096176 -0.022724
0.402904 0.108176 -0.058724
0.402904 0.108176 -0.046724
0.402904 0.108176 -0.034724
0.402904 0.108176 -0.022724
0.402904 0.120176 -0.034724
0.402904 0.120176 -0.022724
0.390904 0.120176 -0.010724
0.390904 0.120176 0.001276
0.390904 0.120176 0.013276
0.390904 0.120176 0.025276
0.414904 0.084176 -0.010724
0.414904 0.096176 -0.010724
0.414904 0.096176 0.001276
0.414904 0.096176 0.013276
0.414904 0.096176 0.025276
0.402904 0.108176 -0.010724
0.402904 0.108176 0.001276
0.402904 0.120176 -0.010724
0.402904 0.120176 0.001276
0.414904 0.108176 0.001276
0.402904 0.108176 0.013276
0.402904 0.108176 0.025276
0.402904 0.120176 0.013276
0.402904 0.120176 0.025276
0.414904 0.108176 0.025276
0.390904 0.120176 0.037276
0.390904 0.120176 0.049276
0.390904 0.120176 0.061276
0.390904 0.120176 0.073276
0.414904 0.096176 0.037276
0.414904 0.096176 0.049276
0.414904 0.084176 0.061276
0.414904 0.084176 0.073276
0.414904 0.096176 0.061276
0.414904 0.096176 0.073276
0.402904 0.108176 0.037276
0.402904 0.108176 0.049276
0.402904 0.120176 0.037276
0.402904 0.120176 0.049276
0.414904 0.108176 0.037276
0.402904 0.108176 0.061276
0.402904 0.108176 0.073276
0.402904 0.120176 0.061276
0.402904 0.120176 0.073276
0.438904 -0.059824 -0.106724
0.438904 -0.047824 -0.106724
0.438904 -0.035824 -0.106724
0.438904 -0.023824 -0.106724
0.438904 -0.023824 -0.094724
0.450904 -0.059824 -0.106724
0.450904 -0.059824 -0.094724
0.450904 -0.047824 -0.106724
0.450904 -0.047824 -0.094724
0.450904 -0.059824 -0.082724
0.450904 -0.059824 -0.070724
0.450904 -0.047824 -0.082724
0.450904 -0.047824 -0.070724
0.462904 -0.059824 -0.070724
0.462904 -0.047824 -0.070724
0.450904 -0.035824 -0.106724
0.450904 -0.035824 -0.094724
0.450904 -0.035824 -0.082724
0.450904 -0.035824 -0.070724
0.450904 -0.023824 -0.082724
0.450904 -0.023824 -0.070724
0.462904 -0.035824 -0.070724
0.462904 -0.059824 -0.058724
0.462904 -0.059824 -0.046724
0.462904 -0.047824 -0.058724
0.462904 -0.047824 -0.046724
0.462904 -0.059824 -0.034724
0.462904 -0.059824 -0.022724
0.462904 -0.047824 -0.034724
0.462904 -0.047824 -0.022724
0.450904 -0.023824 -0.058724
0.462904 -0.035824 -0.058724
0.462904 -0.035824 -0.046724
0.462904 -0.023824 -0.058724
0.462904 -0.023824 -0.046724
0.462904 -0.035824 -0.034724
0.462904 -0.035824 -0.022724
0.462904 -0.023824 -0.034724
0.462904 -0.023824 -0.022724
0.426904 0.000176 -0.106724
0.438904 -0.011824 -0.106724
0.438904 -0.011824 -0.094724
0.438904 0.000176 -0.094724
0.438904 -0.011824 -0.082724
0.438904 0.000176 -0.082724
0.438904 0.000176 -0.070724
0.426904 0.012176 -0.106724
0.426904 0.012176 -0.094724
0.426904 0.024176 -0.106724
0.426904 0.024176 -0.094724
0.426904 0.024176 -0.082724
0.438904 0.012176 -0.082724
0.438904 0.012176 -0.070724
0.438904 0.024176 -0.082724
0.438904 0.024176 -0.070724
0.450904 -0.011824 -0.082724
0.450904 -0.011824 -0.070724
0.450904 0.000176 -0.070724
0.438904 0.024176 -0.058724
0.450904 -0.011824 -0.058724
0.450904 0.000176 -0.058724
0.450904 0.000176 -0.046724
0.462904 -0.011824 -0.046724
0.450904 0.000176 -0.034724
0.462904 -0.011824 -0.034724
0.462904 -0.011824 -0.022724
0.462904 0.000176 -0.034724
0.462904 0.000176 -0.022724
0.450904 0.012176 -0.058724
0.450904 0.012176 -0.046724
0.450904 0.024176 -0.058724
0.450904 0.024176 -0.046724
0.450904 0.012176 -0.034724
0.450904 0.012176 -0.022724
0.450904 0.024176 -0.034724
0.450904 0.024176 -0.022724
0.462904 -0.059824 -0.010724
0.462904 -0.059824 0.001276
0.462904 -0.047824 -0.010724
0.462904 -0.047824 0.001276
0.462904 -0.059824 0.013276
0.462904 -0.059824 0.025276
0.462904 -0.047824 0.013276
0.462904 -0.047824 0.025276
0.462904 -0.035824 -0.010724
0.462904 -0.035824 0.001276
0.462904 -0.023824 -0.010724
0.462904 -0.023824 0.001276
0.462904 -0.035824 0.013276
0.462904 -0.035824 0.025276
0.462904 -0.023824 0.013276
0.462904 -0.023824 0.025276
0.462904 -0.059824 0.037276
0.462904 -0.059824 0.049276
0.462904 -0.047824 0.037276
0.462904 -0.047824 0.049276
0.462904 -0.059824 0.061276
0.462904 -0.059824 0.073276
0.462904 -0.047824 0.061276
0.462904 -0.047824 0.073276
0.462904 -0.035824 0.037276
0.462904 -0.035824 0.049276
0.462904 -0.023824 0.037276
0.462904 -0.023824 0.049276
0.462904 -0.035824 0.061276
0.462904 -0.035824 0.073276
0.462904 -0.023824 0.061276
0.462904 -0.023824 0.073276
0.462904 -0.011824 -0.010724
0.462904 -0.011824 0.001276
0.462904 0.000176 -0.010724
0.462904 0.000176 0.001276
0.462904 -0.011824 0.013276
0.462904 -0.011824 0.025276
0.462904 0.000176 0.013276
0.462904 0.000176 0.025276
0.450904 0.012176 -0.010724
0.450904 0.012176 0.001276
0.450904 0.024176 -0.010724
0.450904 0.024176 0.001276
0.450904 0.012176 0.013276
0.450904 0.012176 0.025276
0.450904 0.024176 0.013276
0.450904 0.024176 0.025276
0.438904 0.024176 0.073276
0.450904 0.000176 0.037276
0.450904 0.000176 0.049276
0.462904 -0.011824 0.037276
0.462904 -0.011824 0.049276
0.462904 0.000176 0.037276
0.462904 0.000176 0.049276
0.450904 -0.011824 0.073276
0.450904 0.000176 0.061276
0.450904 0.000176 0.073276
0.462904 -0.011824 0.061276
0.450904 0.012176 0.037276
0.450904 0.012176 0.049276
0.450904 0.024176 0.037276
0.450904 0.024176 0.049276
0.450904 0.012176 0.061276
0.450904 0.012176 0.073276
0.450904 0.024176 0.061276
0.450904 0.024176 0.073276
0.426904 0.036176 -0.094724
0.426904 0.036176 -0.082724
0.426904 0.036176 -0.070724
0.426904 0.048176 -0.082724
0.426904 0.048176 -0.070724
0.438904 0.036176 -0.070724
0.426904 0.060176 -0.070724
0.438904 0.036176 -0.058724
0.438904 0.036176 -0.046724
0.438904 0.048176 -0.058724
0.438904 0.048176 -0.046724
0.438904 0.036176 -0.034724
0.438904 0.036176 -0.022724
0.438904 0.048176 -0.034724
0.438904 0.048176 -0.022724
0.426904 0.060176 -0.058724
0.426904 0.060176 -0.046724
0.426904 0.072176 -0.058724
0.426904 0.072176 -0.046724
0.438904 0.060176 -0.046724
0.426904 0.072176 -0.034724
0.426904 0.072176 -0.022724
0.438904 0.060176 -0.034724
0.438904 0.060176 -0.022724
0.438904 0.072176 -0.022724
0.450904 0.036176 -0.046724
0.450904 0.036176 -0.034724
0.450904 0.036176 -0.022724
0.426904 0.084176 -0.034724
0.426904 0.084176 -0.022724
0.438904 0.048176 -0.010724
0.438904 0.048176 0.001276
0.438904 0.036176 0.025276
0.438904 0.048176 0.013276
0.438904 0.048176 0.025276
0.426904 0.072176 -0.010724
0.426904 0.072176 0.001276
0.438904 0.060176 -0.010724
0.438904 0.060176 0.001276
0.438904 0.072176 -0.010724
0.438904 0.072176 0.001276
0.426904 0.072176 0.013276
0.426904 0.072176 0.025276
0.438904 0.060176 0.013276
0.438904 0.060176 0.025276
0.438904 0.072176 0.013276
0.438904 0.072176 0.025276
0.450904 0.036176 -0.010724
0.450904 0.036176 0.001276
0.450904 0.036176 0.013276
0.450904 0.036176 0.025276
0.438904 0.036176 0.037276
0.438904 0.036176 0.049276
0.438904 0.048176 0.037276
0.438904 0.048176 0.049276
0.438904 0.036176 0.061276
0.438904 0.036176 0.073276
0.438904 0.048176 0.061276
0.438904 0.048176 0.073276
0.426904 0.072176 0.037276
0.426904 0.072176 0.049276
0.438904 0.060176 0.037276
0.438904 0.060176 0.049276
0.426904 0.060176 0.061276
0.426904 0.060176 0.073276
0.426904 0.072176 0.061276
0.426904 0.072176 0.073276
0.438904 0.060176 0.061276
0.450904 0.036176 0.037276
0.450904 0.036176 0.049276
0.426904 0.084176 -0.010724
0.426904 0.084176 0.001276
0.426904 0.084176 0.013276
0.426904 0.084176 0.025276
0.426904 0.084176 0.037276
0.426904 0.084176 0.049276
0.414904 -0.059824 0.169276
0.414904 -0.047824 0.169276
0.414904 -0.035824 0.169276
0.414904 -0.023824 0.169276
0.390904 0.024176 0.169276
0.402904 -0.011824 0.169276
0.402904 0.000176 0.169276
0.414904 -0.011824 0.157276
0.414904 -0.011824 0.169276
0.414904 0.000176 0.157276
0.414904 0.000176 0.169276
0.414904 0.012176 0.145276
0.414904 0.024176 0.133276
0.414904 0.024176 0.145276
0.402904 0.012176 0.157276
0.402904 0.012176 0.169276
0.402904 0.024176 0.157276
0.402904 0.024176 0.169276
0.414904 0.012176 0.157276
0.414904 0.024176 0.157276
0.366904 -0.059824 0.217276
0.366904 -0.047824 0.217276
0.366904 -0.035824 0.217276
0.366904 -0.023824 0.217276
0.330904 -0.059824 0.241276
0.330904 -0.047824 0.241276
0.342904 -0.059824 0.241276
0.342904 -0.047824 0.229276
0.342904 -0.047824 0.241276
0.330904 -0.059824 0.253276
0.330904 -0.047824 0.253276
0.330904 -0.035824 0.241276
0.330904 -0.023824 0.241276
0.342904 -0.035824 0.229276
0.342904 -0.035824 0.241276
0.342904 -0.023824 0.229276
0.342904 -0.023824 0.241276
0.330904 -0.035824 0.253276
0.354904 -0.059824 0.229276
0.354904 -0.047824 0.229276
0.354904 -0.035824 0.229276
0.354904 -0.023824 0.229276
0.342904 0.000176 0.217276
0.330904 0.024176 0.217276
0.342904 0.012176 0.217276
0.342904 0.024176 0.205276
0.342904 0.024176 0.217276
0.354904 -0.011824 0.217276
0.354904 0.000176 0.217276
0.366904 -0.011824 0.205276
0.366904 -0.011824 0.217276
0.366904 0.000176 0.205276
0.366904 0.000176 0.217276
0.366904 0.024176 0.193276
0.354904 0.012176 0.217276
0.354904 0.024176 0.205276
0.354904 0.024176 0.217276
0.366904 0.012176 0.205276
0.366904 0.024176 0.205276
0.330904 -0.011824 0.241276
0.330904 0.000176 0.229276
0.330904 0.000176 0.241276
0.342904 -0.011824 0.229276
0.342904 0.000176 0.229276
0.330904 0.012176 0.229276
0.330904 0.012176 0.241276
0.330904 0.024176 0.229276
0.342904 0.012176 0.229276
0.354904 -0.011824 0.229276
0.390904 -0.059824 0.193276
0.378904 -0.059824 0.217276
0.378904 -0.047824 0.217276
0.390904 -0.059824 0.205276
0.390904 -0.047824 0.205276
0.390904 -0.035824 0.193276
0.390904 -0.023824 0.193276
0.378904 -0.035824 0.217276
0.378904 -0.023824 0.205276
0.378904 -0.023824 0.217276
0.390904 -0.035824 0.205276
0.390904 -0.023824 0.205276
0.402904 -0.059824 0.181276
0.402904 -0.059824 0.193276
0.402904 -0.047824 0.181276
0.402904 -0.047824 0.193276
0.414904 -0.059824 0.181276
0.414904 -0.047824 0.181276
0.402904 -0.035824 0.181276
0.402904 -0.035824 0.193276
0.402904 -0.023824 0.181276
0.402904 -0.023824 0.193276
0.414904 -0.035824 0.181276
0.414904 -0.023824 0.181276
0.390904 -0.011824 0.193276
0.390904 0.000176 0.181276
0.390904 0.000176 0.193276
0.378904 -0.011824 0.205276
0.378904 -0.011824 0.217276
0.378904 0.000176 0.205276
0.390904 -0.011824 0.205276
0.378904 0.012176 0.193276
0.378904 0.024176 0.181276
0.378904 0.024176 0.193276
0.390904 0.012176 0.181276
0.390904 0.012176 0.193276
0.390904 0.024176 0.181276
0.378904 0.012176 0.205276
0.402904 -0.011824 0.181276
0.402904 -0.011824 0.193276
0.402904 0.000176 0.181276
0.414904 -0.011824 0.181276
0.402904 0.012176 0.181276
0.366904 0.060176 0.169276
0.366904 0.072176 0.169276
0.342904 0.096176 0.169276
0.330904 0.108176 0.169276
0.330904 0.120176 0.169276
0.342904 0.108176 0.157276
0.342904 0.108176 0.169276
0.342904 0.120176 0.157276
0.354904 0.084176 0.169276
0.354904 0.096176 0.169276
0.366904 0.084176 0.157276
0.366904 0.084176 0.169276
0.366904 0.096176 0.157276
0.354904 0.120176 0.145276
0.366904 0.108176 0.145276
0.366904 0.120176 0.133276
0.366904 0.120176 0.145276
0.354904 0.108176 0.157276
0.354904 0.108176 0.169276
0.354904 0.120176 0.157276
0.366904 0.108176 0.157276
0.414904 0.048176 0.121276
0.414904 0.072176 0.097276
0.402904 0.072176 0.121276
0.414904 0.060176 0.109276
0.414904 0.060176 0.121276
0.414904 0.072176 0.109276
0.414904 0.072176 0.121276
0.378904 0.048176 0.169276
0.390904 0.036176 0.169276
0.390904 0.048176 0.157276
0.390904 0.048176 0.169276
0.378904 0.072176 0.145276
0.390904 0.060176 0.145276
0.390904 0.072176 0.133276
0.390904 0.072176 0.145276
0.378904 0.060176 0.157276
0.378904 0.060176 0.169276
0.378904 0.072176 0.157276
0.378904 0.072176 0.169276
0.390904 0.060176 0.157276
0.390904 0.072176 0.157276
0.402904 0.036176 0.145276
0.402904 0.048176 0.133276
0.402904 0.048176 0.145276
0.414904 0.036176 0.133276
0.414904 0.036176 0.145276
0.414904 0.048176 0.133276
0.414904 0.048176 0.145276
0.402904 0.036176 0.157276
0.402904 0.048176 0.157276
0.402904 0.060176 0.133276
0.402904 0.060176 0.145276
0.402904 0.072176 0.133276
0.414904 0.060176 0.133276
0.390904 0.096176 0.109276
0.390904 0.096176 0.121276
0.390904 0.120176 0.085276
0.390904 0.120176 0.097276
0.378904 0.120176 0.109276
0.378904 0.120176 0.121276
0.390904 0.108176 0.109276
0.390904 0.108176 0.121276
0.390904 0.120176 0.109276
0.402904 0.096176 0.085276
0.402904 0.096176 0.097276
0.414904 0.084176 0.085276
0.414904 0.084176 0.097276
0.414904 0.096176 0.085276
0.414904 0.096176 0.097276
0.402904 0.084176 0.109276
0.402904 0.084176 0.121276
0.402904 0.096176 0.109276
0.402904 0.096176 0.121276
0.414904 0.084176 0.109276
0.402904 0.108176 0.085276
0.402904 0.108176 0.097276
0.378904 0.084176 0.145276
0.378904 0.096176 0.133276
