ply
format ascii 1.0
element vertex 1647
property float x
property float y
property float z
end_header
0.000154 -0.364574 0.185026
0.009654 -0.364574 0.175526
0.009654 -0.364574 0.185026
0.019154 -0.364574 0.061526
0.019154 -0.364574 0.071026
0.028654 -0.364574 0.061526
0.028654 -0.364574 0.071026
0.019154 -0.364574 0.080526
0.019154 -0.364574 0.090026
0.028654 -0.364574 0.080526
0.028654 -0.364574 0.090026
0.038154 -0.364574 0.061526
0.038154 -0.364574 0.071026
0.047654 -0.364574 0.061526
0.047654 -0.364574 0.071026
0.038154 -0.364574 0.080526
0.038154 -0.364574 0.090026
0.047654 -0.364574 0.090026
0.019154 -0.364574 0.099526
0.019154 -0.364574 0.109026
0.028654 -0.364574 0.109026
0.019154 -0.364574 0.118526
0.019154 -0.364574 0.128026
0.028654 -0.364574 0.118526
0.028654 -0.364574 0.128026
0.038154 -0.364574 0.109026
0.047654 -0.364574 0.099526
0.047654 -0.364574 0.109026
0.038154 -0.364574 0.118526
0.038154 -0.364574 0.128026
0.047654 -0.364574 0.118526
0.047654 -0.364574 0.128026
0.057154 -0.364574 0.061526
0.057154 -0.364574 0.071026
0.066654 -0.364574 0.061526
0.057154 -0.364574 0.080526
0.057154 -0.364574 0.090026
0.066654 -0.364574 0.080526
0.066654 -0.364574 0.090026
0.076154 -0.364574 0.071026
0.085654 -0.364574 0.061526
0.085654 -0.364574 0.071026
0.076154 -0.364574 0.080526
0.076154 -0.364574 0.090026
0.085654 -0.364574 0.080526
0.085654 -0.364574 0.090026
0.057154 -0.364574 0.099526
0.057154 -0.364574 0.109026
0.066654 -0.364574 0.099526
0.066654 -0.364574 0.109026
0.057154 -0.364574 0.118526
0.057154 -0.364574 0.128026
0.066654 -0.364574 0.118526
0.066654 -0.364574 0.128026
0.076154 -0.364574 0.099526
0.076154 -0.364574 0.109026
0.085654 -0.364574 0.099526
0.076154 -0.364574 0.128026
0.085654 -0.364574 0.118526
0.085654 -0.364574 0.128026
0.019154 -0.364574 0.137526
0.019154 -0.364574 0.147026
0.028654 -0.364574 0.137526
0.028654 -0.364574 0.147026
0.019154 -0.364574 0.156526
0.019154 -0.364574 0.166026
0.028654 -0.364574 0.156526
0.028654 -0.364574 0.166026
0.038154 -0.364574 0.137526
0.038154 -0.364574 0.147026
0.047654 -0.364574 0.137526
0.047654 -0.364574 0.147026
0.038154 -0.364574 0.156526
0.047654 -0.364574 0.166026
0.019154 -0.364574 0.175526
0.019154 -0.364574 0.185026
0.028654 -0.364574 0.175526
0.028654 -0.364574 0.185026
0.028654 -0.364574 0.194526
0.038154 -0.364574 0.175526
0.038154 -0.364574 0.185026
0.047654 -0.364574 0.175526
0.047654 -0.364574 0.185026
0.038154 -0.364574 0.194526
0.038154 -0.355074 0.194526
0.047654 -0.355074 0.194526
0.057154 -0.364574 0.137526
0.057154 -0.364574 0.147026
0.066654 -0.364574 0.147026
0.057154 -0.364574 0.156526
0.057154 -0.364574 0.166026
0.066654 -0.364574 0.156526
0.066654 -0.364574 0.166026
0.076154 -0.364574 0.137526
0.076154 -0.364574 0.147026
0.085654 -0.364574 0.137526
0.085654 -0.364574 0.147026
0.076154 -0.364574 0.156526
0.076154 -0.364574 0.166026
0.085654 -0.364574 0.156526
0.085654 -0.364574 0.166026
0.057154 -0.364574 0.175526
0.057154 -0.355074 0.185026
0.066654 -0.364574 0.175526
0.066654 -0.355074 0.185026
0.057154 -0.355074 0.194526
0.066654 -0.355074 0.194526
0.076154 -0.364574 0.175526
0.076154 -0.355074 0.185026
0.085654 -0.355074 0.175526
0.076154 -0.355074 0.194526
0.085654 -0.355074 0.194526
-0.056846 -0.307574 0.194526
-0.056846 -0.307574 0.204026
-0.056846 -0.298074 0.194526
-0.047346 -0.307574 0.204026
-0.047346 -0.298074 0.194526
-0.047346 -0.298074 0.204026
-0.056846 -0.279074 0.185026
-0.047346 -0.288574 0.185026
-0.047346 -0.279074 0.185026
-0.056846 -0.288574 0.194526
-0.047346 -0.288574 0.194526
-0.037846 -0.288574 0.185026
-0.037846 -0.279074 0.185026
-0.028346 -0.279074 0.185026
-0.037846 -0.288574 0.194526
-0.037846 -0.288574 0.204026
-0.028346 -0.288574 0.204026
-0.028346 -0.279074 0.194526
-0.056846 -0.269574 0.185026
-0.056846 -0.260074 0.185026
-0.047346 -0.269574 0.185026
-0.047346 -0.260074 0.185026
-0.047346 -0.250574 0.185026
-0.047346 -0.241074 0.185026
-0.056846 -0.250574 0.194526
-0.056846 -0.241074 0.194526
-0.047346 -0.241074 0.194526
-0.037846 -0.269574 0.185026
-0.037846 -0.260074 0.185026
-0.028346 -0.269574 0.175526
-0.028346 -0.260074 0.175526
-0.028346 -0.260074 0.185026
-0.037846 -0.250574 0.185026
-0.037846 -0.241074 0.185026
-0.028346 -0.250574 0.175526
-0.028346 -0.250574 0.185026
-0.028346 -0.241074 0.175526
-0.028346 -0.241074 0.185026
-0.018846 -0.279074 0.185026
-0.009346 -0.279074 0.185026
-0.018846 -0.279074 0.204026
0.000154 -0.279074 0.194526
0.009654 -0.279074 0.204026
-0.018846 -0.260074 0.175526
-0.009346 -0.269574 0.175526
-0.009346 -0.269574 0.185026
-0.009346 -0.260074 0.175526
-0.018846 -0.250574 0.175526
-0.018846 -0.241074 0.175526
-0.009346 -0.250574 0.175526
-0.009346 -0.241074 0.175526
-0.009346 -0.241074 0.185026
0.000154 -0.269574 0.185026
0.000154 -0.260074 0.185026
0.009654 -0.269574 0.194526
0.009654 -0.269574 0.204026
0.009654 -0.260074 0.194526
0.009654 -0.260074 0.204026
0.000154 -0.250574 0.185026
0.000154 -0.241074 0.185026
0.009654 -0.250574 0.194526
0.009654 -0.250574 0.204026
0.009654 -0.241074 0.194526
0.009654 -0.241074 0.204026
-0.056846 -0.231574 0.194526
-0.056846 -0.222074 0.204026
-0.047346 -0.231574 0.194526
-0.047346 -0.222074 0.194526
-0.056846 -0.212574 0.204026
-0.056846 -0.203074 0.204026
-0.047346 -0.212574 0.194526
-0.047346 -0.203074 0.194526
-0.047346 -0.203074 0.204026
-0.037846 -0.231574 0.185026
-0.037846 -0.222074 0.185026
-0.028346 -0.231574 0.185026
-0.028346 -0.222074 0.185026
-0.028346 -0.212574 0.185026
-0.028346 -0.203074 0.185026
-0.037846 -0.212574 0.194526
-0.037846 -0.203074 0.194526
-0.028346 -0.203074 0.194526
-0.056846 -0.193574 0.204026
-0.056846 -0.184074 0.204026
-0.047346 -0.193574 0.194526
-0.047346 -0.193574 0.204026
-0.047346 -0.184074 0.204026
-0.056846 -0.174574 0.204026
-0.047346 -0.174574 0.204026
-0.047346 -0.165074 0.204026
-0.028346 -0.193574 0.185026
-0.037846 -0.193574 0.194526
-0.037846 -0.184074 0.194526
-0.028346 -0.193574 0.194526
-0.028346 -0.184074 0.194526
-0.037846 -0.174574 0.204026
-0.037846 -0.165074 0.204026
-0.028346 -0.174574 0.194526
-0.028346 -0.165074 0.194526
-0.018846 -0.231574 0.175526
-0.018846 -0.222074 0.185026
-0.009346 -0.231574 0.175526
-0.009346 -0.231574 0.185026
-0.009346 -0.222074 0.185026
-0.018846 -0.212574 0.185026
-0.018846 -0.203074 0.185026
-0.009346 -0.212574 0.185026
-0.009346 -0.203074 0.185026
0.000154 -0.231574 0.185026
0.000154 -0.222074 0.194526
0.009654 -0.231574 0.194526
0.009654 -0.231574 0.204026
0.009654 -0.222074 0.204026
0.000154 -0.212574 0.194526
0.000154 -0.203074 0.194526
0.009654 -0.212574 0.204026
0.009654 -0.203074 0.204026
-0.018846 -0.193574 0.185026
-0.018846 -0.184074 0.185026
-0.009346 -0.193574 0.185026
-0.009346 -0.184074 0.185026
-0.009346 -0.184074 0.194526
-0.018846 -0.174574 0.194526
-0.018846 -0.165074 0.194526
-0.009346 -0.174574 0.194526
-0.009346 -0.165074 0.194526
0.000154 -0.193574 0.194526
0.000154 -0.184074 0.194526
0.000154 -0.184074 0.204026
0.009654 -0.193574 0.204026
0.000154 -0.174574 0.204026
0.019154 -0.279074 0.204026
0.019154 -0.269574 0.204026
0.095154 -0.364574 -0.080974
0.104654 -0.364574 -0.090474
0.104654 -0.364574 -0.080974
0.095154 -0.364574 -0.071474
0.095154 -0.364574 -0.061974
0.104654 -0.364574 -0.071474
0.114154 -0.364574 -0.090474
0.114154 -0.364574 -0.080974
0.123654 -0.364574 -0.090474
0.123654 -0.364574 -0.080974
0.114154 -0.364574 -0.071474
0.123654 -0.364574 -0.061974
0.095154 -0.364574 -0.042974
0.104654 -0.364574 -0.052474
0.104654 -0.364574 -0.042974
0.095154 -0.364574 -0.033474
0.095154 -0.364574 -0.023974
0.104654 -0.364574 -0.033474
0.104654 -0.364574 -0.023974
0.114154 -0.364574 -0.052474
0.114154 -0.364574 -0.042974
0.123654 -0.364574 -0.052474
0.123654 -0.364574 -0.042974
0.114154 -0.364574 -0.033474
0.114154 -0.364574 -0.023974
0.123654 -0.364574 -0.033474
0.133154 -0.364574 -0.090474
0.133154 -0.364574 -0.080974
0.142654 -0.364574 -0.090474
0.133154 -0.364574 -0.061974
0.142654 -0.364574 -0.071474
0.142654 -0.364574 -0.061974
0.152154 -0.364574 -0.080974
0.161654 -0.364574 -0.080974
0.152154 -0.364574 -0.071474
0.152154 -0.364574 -0.061974
0.161654 -0.364574 -0.071474
0.161654 -0.364574 -0.061974
0.133154 -0.364574 -0.052474
0.133154 -0.364574 -0.042974
0.142654 -0.364574 -0.052474
0.142654 -0.364574 -0.042974
0.133154 -0.364574 -0.023974
0.142654 -0.364574 -0.023974
0.152154 -0.364574 -0.052474
0.161654 -0.364574 -0.042974
0.152154 -0.364574 -0.033474
0.152154 -0.364574 -0.023974
0.161654 -0.364574 -0.033474
0.161654 -0.364574 -0.023974
0.095154 -0.364574 -0.014474
0.104654 -0.364574 -0.014474
0.104654 -0.364574 -0.004974
0.095154 -0.364574 0.004526
0.095154 -0.364574 0.014026
0.104654 -0.364574 0.004526
0.104654 -0.364574 0.014026
0.114154 -0.364574 -0.004974
0.123654 -0.364574 -0.014474
0.123654 -0.364574 -0.004974
0.114154 -0.364574 0.004526
0.114154 -0.364574 0.014026
0.123654 -0.364574 0.004526
0.123654 -0.364574 0.014026
0.095154 -0.364574 0.023526
0.095154 -0.364574 0.033026
0.104654 -0.364574 0.023526
0.104654 -0.364574 0.033026
0.095154 -0.364574 0.052026
0.104654 -0.364574 0.052026
0.114154 -0.364574 0.023526
0.123654 -0.364574 0.033026
0.114154 -0.364574 0.042526
0.114154 -0.364574 0.052026
0.123654 -0.364574 0.042526
0.123654 -0.364574 0.052026
0.133154 -0.364574 -0.014474
0.133154 -0.364574 -0.004974
0.142654 -0.364574 -0.014474
0.142654 -0.364574 -0.004974
0.133154 -0.364574 0.004526
0.142654 -0.364574 0.014026
0.161654 -0.383574 -0.004974
0.161654 -0.374074 -0.014474
0.161654 -0.374074 -0.004974
0.152154 -0.374074 0.004526
0.152154 -0.374074 0.014026
0.161654 -0.383574 0.004526
0.161654 -0.383574 0.014026
0.161654 -0.374074 0.014026
0.152154 -0.364574 -0.014474
0.152154 -0.364574 -0.004974
0.161654 -0.364574 -0.014474
0.152154 -0.364574 0.004526
0.152154 -0.364574 0.014026
0.133154 -0.364574 0.023526
0.133154 -0.364574 0.033026
0.142654 -0.364574 0.023526
0.142654 -0.364574 0.033026
0.133154 -0.364574 0.042526
0.133154 -0.364574 0.052026
0.142654 -0.364574 0.042526
0.142654 -0.364574 0.052026
0.152154 -0.374074 0.033026
0.161654 -0.383574 0.033026
0.161654 -0.374074 0.023526
0.161654 -0.374074 0.033026
0.161654 -0.383574 0.042526
0.161654 -0.374074 0.042526
0.161654 -0.374074 0.052026
0.152154 -0.364574 0.023526
0.152154 -0.364574 0.042526
0.152154 -0.364574 0.052026
0.190154 -0.393074 -0.042974
0.199654 -0.393074 -0.052474
0.190154 -0.393074 -0.023974
0.199654 -0.393074 -0.033474
0.199654 -0.393074 -0.023974
0.218654 -0.393074 -0.080974
0.209154 -0.393074 -0.071474
0.209154 -0.393074 -0.061974
0.218654 -0.393074 -0.071474
0.228154 -0.393074 -0.080974
0.237654 -0.393074 -0.090474
0.237654 -0.393074 -0.080974
0.228154 -0.393074 -0.071474
0.228154 -0.393074 -0.061974
0.237654 -0.393074 -0.071474
0.237654 -0.393074 -0.061974
0.209154 -0.393074 -0.042974
0.218654 -0.393074 -0.052474
0.218654 -0.393074 -0.042974
0.209154 -0.393074 -0.033474
0.209154 -0.393074 -0.023974
0.218654 -0.393074 -0.033474
0.218654 -0.393074 -0.023974
0.228154 -0.393074 -0.052474
0.228154 -0.393074 -0.042974
0.237654 -0.393074 -0.052474
0.237654 -0.393074 -0.042974
0.228154 -0.393074 -0.033474
0.180654 -0.393074 -0.014474
0.180654 -0.393074 -0.004974
0.171154 -0.393074 0.004526
0.180654 -0.393074 0.004526
0.180654 -0.393074 0.014026
0.190154 -0.393074 -0.014474
0.190154 -0.393074 -0.004974
0.199654 -0.393074 -0.014474
0.199654 -0.393074 -0.004974
0.190154 -0.393074 0.004526
0.190154 -0.393074 0.014026
0.199654 -0.393074 0.004526
0.199654 -0.393074 0.014026
0.180654 -0.393074 0.033026
0.171154 -0.393074 0.042526
0.180654 -0.393074 0.042526
0.180654 -0.393074 0.052026
0.190154 -0.393074 0.023526
0.190154 -0.393074 0.033026
0.199654 -0.393074 0.023526
0.199654 -0.393074 0.033026
0.190154 -0.393074 0.042526
0.190154 -0.393074 0.052026
0.199654 -0.393074 0.042526
0.199654 -0.393074 0.052026
0.209154 -0.393074 0.014026
0.209154 -0.393074 0.023526
0.209154 -0.393074 0.042526
0.209154 -0.393074 0.052026
0.218654 -0.393074 0.052026
0.171154 -0.364574 -0.090474
0.171154 -0.364574 -0.080974
0.180654 -0.364574 -0.090474
0.180654 -0.364574 -0.080974
0.171154 -0.364574 -0.071474
0.180654 -0.364574 -0.061974
0.190154 -0.383574 -0.061974
0.190154 -0.374074 -0.071474
0.199654 -0.383574 -0.061974
0.199654 -0.374074 -0.071474
0.190154 -0.364574 -0.090474
0.190154 -0.364574 -0.080974
0.199654 -0.364574 -0.090474
0.199654 -0.364574 -0.080974
0.190154 -0.364574 -0.071474
0.180654 -0.383574 -0.042974
0.180654 -0.374074 -0.042974
0.171154 -0.383574 -0.023974
0.171154 -0.374074 -0.033474
0.171154 -0.374074 -0.023974
0.180654 -0.383574 -0.033474
0.180654 -0.383574 -0.023974
0.171154 -0.364574 -0.052474
0.171154 -0.364574 -0.042974
0.190154 -0.383574 -0.042974
0.190154 -0.374074 -0.052474
0.209154 -0.383574 -0.080974
0.209154 -0.374074 -0.090474
0.218654 -0.383574 -0.080974
0.218654 -0.374074 -0.090474
0.228154 -0.383574 -0.090474
0.218654 -0.374074 -0.023974
0.228154 -0.383574 -0.023974
0.237654 -0.383574 -0.033474
0.171154 -0.383574 -0.014474
0.171154 -0.383574 0.004526
0.171154 -0.383574 0.014026
0.171154 -0.383574 0.023526
0.171154 -0.383574 0.033026
0.171154 -0.383574 0.042526
0.171154 -0.383574 0.052026
0.180654 -0.383574 0.052026
0.209154 -0.383574 -0.014474
0.095154 -0.364574 0.061526
0.095154 -0.364574 0.071026
0.104654 -0.364574 0.061526
0.104654 -0.364574 0.071026
0.095154 -0.364574 0.080526
0.095154 -0.364574 0.090026
0.104654 -0.364574 0.080526
0.104654 -0.364574 0.090026
0.114154 -0.364574 0.061526
0.114154 -0.364574 0.071026
0.123654 -0.364574 0.061526
0.114154 -0.364574 0.080526
0.123654 -0.364574 0.080526
0.123654 -0.364574 0.090026
0.095154 -0.364574 0.099526
0.095154 -0.364574 0.109026
0.104654 -0.364574 0.099526
0.104654 -0.364574 0.109026
0.095154 -0.364574 0.118526
0.095154 -0.364574 0.128026
0.104654 -0.364574 0.118526
0.104654 -0.364574 0.128026
0.114154 -0.364574 0.099526
0.114154 -0.364574 0.109026
0.123654 -0.364574 0.099526
0.123654 -0.364574 0.109026
0.114154 -0.364574 0.118526
0.114154 -0.364574 0.128026
0.123654 -0.364574 0.118526
0.123654 -0.364574 0.128026
0.133154 -0.364574 0.071026
0.142654 -0.364574 0.061526
0.142654 -0.364574 0.071026
0.133154 -0.364574 0.080526
0.133154 -0.364574 0.090026
0.142654 -0.364574 0.080526
0.142654 -0.364574 0.090026
0.161654 -0.374074 0.061526
0.152154 -0.364574 0.061526
0.152154 -0.364574 0.071026
0.161654 -0.364574 0.061526
0.161654 -0.364574 0.071026
0.152154 -0.364574 0.080526
0.152154 -0.364574 0.090026
0.161654 -0.364574 0.080526
0.161654 -0.364574 0.090026
0.133154 -0.364574 0.099526
0.133154 -0.364574 0.109026
0.142654 -0.364574 0.099526
0.142654 -0.364574 0.109026
0.133154 -0.364574 0.118526
0.133154 -0.364574 0.128026
0.142654 -0.364574 0.128026
0.152154 -0.364574 0.099526
0.152154 -0.364574 0.109026
0.161654 -0.364574 0.109026
0.152154 -0.364574 0.118526
0.152154 -0.364574 0.128026
0.161654 -0.364574 0.118526
0.161654 -0.364574 0.128026
0.095154 -0.364574 0.137526
0.095154 -0.364574 0.147026
0.104654 -0.364574 0.137526
0.104654 -0.364574 0.147026
0.095154 -0.364574 0.156526
0.095154 -0.364574 0.166026
0.104654 -0.364574 0.156526
0.114154 -0.364574 0.137526
0.123654 -0.364574 0.147026
0.114154 -0.364574 0.156526
0.114154 -0.364574 0.166026
0.123654 -0.364574 0.156526
0.123654 -0.364574 0.166026
0.095154 -0.355074 0.185026
0.104654 -0.364574 0.175526
0.104654 -0.355074 0.175526
0.104654 -0.355074 0.185026
0.095154 -0.355074 0.194526
0.114154 -0.355074 0.175526
0.114154 -0.355074 0.185026
0.123654 -0.355074 0.175526
0.123654 -0.355074 0.185026
0.133154 -0.364574 0.137526
0.133154 -0.364574 0.147026
0.142654 -0.364574 0.137526
0.142654 -0.364574 0.147026
0.133154 -0.364574 0.156526
0.133154 -0.364574 0.166026
0.133154 -0.355074 0.166026
0.142654 -0.364574 0.156526
0.142654 -0.355074 0.166026
0.152154 -0.364574 0.137526
0.152154 -0.364574 0.147026
0.161654 -0.364574 0.137526
0.161654 -0.364574 0.147026
0.152154 -0.364574 0.156526
0.152154 -0.355074 0.156526
0.152154 -0.355074 0.166026
0.161654 -0.355074 0.156526
0.161654 -0.355074 0.166026
0.142654 -0.383574 0.204026
0.133154 -0.355074 0.175526
0.142654 -0.355074 0.175526
0.152154 -0.383574 0.204026
0.161654 -0.383574 0.194526
0.161654 -0.383574 0.204026
0.161654 -0.355074 0.175526
0.190154 -0.393074 0.061526
0.199654 -0.393074 0.061526
0.199654 -0.393074 0.071026
0.199654 -0.393074 0.080526
0.209154 -0.393074 0.061526
0.209154 -0.393074 0.071026
0.218654 -0.393074 0.061526
0.218654 -0.393074 0.071026
0.209154 -0.393074 0.080526
0.218654 -0.393074 0.080526
0.228154 -0.393074 0.071026
0.228154 -0.393074 0.080526
0.228154 -0.393074 0.090026
0.237654 -0.393074 0.090026
0.228154 -0.393074 0.099526
0.237654 -0.393074 0.099526
0.237654 -0.393074 0.109026
0.180654 -0.393074 0.204026
0.190154 -0.393074 0.204026
0.199654 -0.393074 0.194526
0.199654 -0.393074 0.204026
0.218654 -0.393074 0.185026
0.209154 -0.393074 0.194526
0.209154 -0.393074 0.204026
0.218654 -0.393074 0.194526
0.218654 -0.393074 0.204026
0.228154 -0.393074 0.185026
0.237654 -0.393074 0.175526
0.228154 -0.393074 0.204026
0.237654 -0.393074 0.194526
0.237654 -0.393074 0.204026
0.171154 -0.383574 0.061526
0.171154 -0.374074 0.061526
0.171154 -0.374074 0.071026
0.180654 -0.383574 0.061526
0.180654 -0.383574 0.071026
0.180654 -0.374074 0.071026
0.180654 -0.383574 0.080526
0.180654 -0.374074 0.080526
0.171154 -0.364574 0.080526
0.171154 -0.364574 0.090026
0.180654 -0.364574 0.090026
0.190154 -0.383574 0.071026
0.190154 -0.383574 0.080526
0.190154 -0.374074 0.090026
0.199654 -0.383574 0.080526
0.199654 -0.383574 0.090026
0.171154 -0.364574 0.099526
0.171154 -0.364574 0.109026
0.180654 -0.364574 0.099526
0.180654 -0.364574 0.109026
0.171154 -0.364574 0.118526
0.171154 -0.364574 0.128026
0.180654 -0.364574 0.118526
0.180654 -0.364574 0.128026
0.190154 -0.374074 0.099526
0.199654 -0.383574 0.099526
0.199654 -0.374074 0.099526
0.190154 -0.364574 0.099526
0.190154 -0.364574 0.109026
0.199654 -0.364574 0.109026
0.190154 -0.364574 0.118526
0.190154 -0.364574 0.128026
0.190154 -0.355074 0.128026
0.199654 -0.364574 0.118526
0.199654 -0.364574 0.128026
0.209154 -0.383574 0.090026
0.218654 -0.383574 0.090026
0.228154 -0.383574 0.061526
0.237654 -0.383574 0.061526
0.237654 -0.383574 0.071026
0.209154 -0.383574 0.099526
0.209154 -0.374074 0.099526
0.209154 -0.374074 0.109026
0.218654 -0.383574 0.099526
0.218654 -0.383574 0.109026
0.218654 -0.374074 0.118526
0.218654 -0.374074 0.128026
0.209154 -0.364574 0.118526
0.209154 -0.364574 0.128026
0.218654 -0.364574 0.118526
0.218654 -0.364574 0.128026
0.228154 -0.383574 0.109026
0.228154 -0.383574 0.118526
0.228154 -0.374074 0.118526
0.228154 -0.374074 0.128026
0.237654 -0.383574 0.118526
0.237654 -0.383574 0.128026
0.237654 -0.374074 0.128026
0.171154 -0.364574 0.137526
0.171154 -0.355074 0.147026
0.180654 -0.355074 0.137526
0.171154 -0.355074 0.166026
0.180654 -0.355074 0.156526
0.180654 -0.355074 0.166026
0.190154 -0.355074 0.147026
0.199654 -0.355074 0.137526
0.199654 -0.355074 0.147026
0.190154 -0.355074 0.156526
0.190154 -0.355074 0.166026
0.199654 -0.355074 0.156526
0.171154 -0.383574 0.194526
0.171154 -0.383574 0.204026
0.180654 -0.383574 0.194526
0.171154 -0.355074 0.175526
0.199654 -0.383574 0.185026
0.190154 -0.383574 0.194526
0.209154 -0.355074 0.137526
0.209154 -0.355074 0.147026
0.218654 -0.364574 0.137526
0.218654 -0.364574 0.147026
0.218654 -0.355074 0.147026
0.209154 -0.355074 0.156526
0.237654 -0.374074 0.137526
0.237654 -0.374074 0.147026
0.228154 -0.374074 0.156526
0.237654 -0.383574 0.166026
0.237654 -0.374074 0.156526
0.228154 -0.364574 0.137526
0.228154 -0.364574 0.147026
0.228154 -0.364574 0.156526
0.209154 -0.383574 0.185026
0.228154 -0.383574 0.175526
-0.265846 0.395426 -0.403974
-0.265846 0.404926 -0.403974
-0.256346 0.395426 -0.403974
-0.256346 0.404926 -0.413474
-0.256346 0.414426 -0.422974
-0.256346 0.423926 -0.422974
-0.265846 0.414426 -0.413474
-0.265846 0.414426 -0.403974
-0.265846 0.423926 -0.413474
-0.265846 0.423926 -0.403974
-0.256346 0.433426 -0.432474
-0.256346 0.433426 -0.422974
-0.256346 0.442926 -0.432474
-0.256346 0.442926 -0.422974
-0.265846 0.433426 -0.413474
-0.265846 0.433426 -0.403974
-0.265846 0.442926 -0.413474
-0.265846 0.442926 -0.403974
-0.246846 0.404926 -0.413474
-0.246846 0.404926 -0.403974
-0.237346 0.404926 -0.403974
-0.246846 0.442926 -0.441974
-0.237346 0.433426 -0.441974
-0.237346 0.442926 -0.441974
-0.227846 0.442926 -0.441974
-0.246846 0.414426 -0.422974
-0.246846 0.423926 -0.432474
-0.237346 0.414426 -0.422974
-0.237346 0.423926 -0.422974
-0.237346 0.414426 -0.413474
-0.237346 0.414426 -0.403974
-0.237346 0.423926 -0.413474
-0.246846 0.433426 -0.432474
-0.237346 0.433426 -0.432474
-0.227846 0.423926 -0.403974
-0.227846 0.433426 -0.432474
-0.227846 0.433426 -0.422974
-0.227846 0.442926 -0.432474
-0.227846 0.442926 -0.422974
-0.227846 0.433426 -0.413474
-0.227846 0.433426 -0.403974
-0.227846 0.442926 -0.413474
-0.227846 0.442926 -0.403974
-0.332346 -0.127074 -0.099974
-0.332346 -0.117574 -0.099974
-0.332346 -0.108074 -0.109474
-0.332346 -0.108074 -0.099974
-0.332346 -0.089074 -0.118974
-0.341846 -0.098574 -0.099974
-0.341846 -0.089074 -0.109474
-0.341846 -0.089074 -0.099974
-0.332346 -0.098574 -0.109474
-0.332346 -0.089074 -0.109474
-0.313346 -0.146074 -0.099974
-0.313346 -0.127074 -0.118974
-0.322846 -0.136574 -0.099974
-0.322846 -0.127074 -0.109474
-0.313346 -0.136574 -0.109474
-0.294346 -0.146074 -0.118974
-0.303846 -0.155574 -0.099974
-0.303846 -0.146074 -0.109474
-0.294346 -0.155574 -0.109474
-0.303846 -0.136574 -0.118974
-0.303846 -0.127074 -0.128474
-0.303846 -0.127074 -0.118974
-0.294346 -0.127074 -0.128474
-0.303846 -0.108074 -0.137974
-0.294346 -0.117574 -0.137974
-0.294346 -0.108074 -0.147474
-0.303846 -0.098574 -0.137974
-0.303846 -0.089074 -0.147474
-0.303846 -0.089074 -0.137974
-0.294346 -0.098574 -0.147474
-0.294346 -0.089074 -0.147474
-0.322846 -0.108074 -0.118974
-0.313346 -0.117574 -0.118974
-0.313346 -0.108074 -0.128474
-0.313346 -0.108074 -0.118974
-0.322846 -0.117574 -0.109474
-0.322846 -0.108074 -0.109474
-0.322846 -0.098574 -0.118974
-0.322846 -0.089074 -0.128474
-0.322846 -0.089074 -0.118974
-0.313346 -0.098574 -0.128474
-0.313346 -0.089074 -0.128474
-0.303846 -0.117574 -0.128474
-0.303846 -0.108074 -0.128474
-0.351346 -0.070074 -0.099974
-0.351346 -0.060574 -0.099974
-0.351346 -0.051074 -0.109474
-0.351346 -0.051074 -0.099974
-0.341846 -0.070074 -0.118974
-0.332346 -0.079574 -0.118974
-0.332346 -0.070074 -0.128474
-0.341846 -0.079574 -0.109474
-0.341846 -0.079574 -0.099974
-0.341846 -0.070074 -0.109474
-0.341846 -0.060574 -0.118974
-0.341846 -0.051074 -0.118974
-0.332346 -0.060574 -0.128474
-0.332346 -0.051074 -0.128474
-0.341846 -0.060574 -0.109474
-0.341846 -0.051074 -0.109474
-0.360846 -0.032074 -0.099974
-0.351346 -0.041574 -0.109474
-0.351346 -0.041574 -0.099974
-0.351346 -0.032074 -0.109474
-0.360846 -0.022574 -0.099974
-0.360846 -0.013074 -0.099974
-0.351346 -0.022574 -0.109474
-0.351346 -0.013074 -0.109474
-0.341846 -0.041574 -0.118974
-0.341846 -0.032074 -0.118974
-0.332346 -0.041574 -0.128474
-0.332346 -0.032074 -0.128474
-0.341846 -0.041574 -0.109474
-0.341846 -0.032074 -0.109474
-0.341846 -0.022574 -0.118974
-0.341846 -0.013074 -0.118974
-0.332346 -0.022574 -0.128474
-0.332346 -0.013074 -0.128474
-0.322846 -0.070074 -0.137974
-0.313346 -0.079574 -0.147474
-0.313346 -0.079574 -0.137974
-0.313346 -0.070074 -0.147474
-0.322846 -0.060574 -0.137974
-0.322846 -0.051074 -0.137974
-0.313346 -0.060574 -0.147474
-0.313346 -0.051074 -0.147474
-0.303846 -0.079574 -0.156974
-0.303846 -0.070074 -0.156974
-0.294346 -0.079574 -0.156974
-0.294346 -0.070074 -0.156974
-0.303846 -0.079574 -0.147474
-0.303846 -0.070074 -0.147474
-0.303846 -0.060574 -0.156974
-0.303846 -0.051074 -0.156974
-0.294346 -0.060574 -0.156974
-0.294346 -0.051074 -0.156974
-0.322846 -0.079574 -0.128474
-0.322846 -0.070074 -0.128474
-0.322846 -0.060574 -0.128474
-0.322846 -0.041574 -0.137974
-0.322846 -0.032074 -0.137974
-0.313346 -0.041574 -0.147474
-0.313346 -0.032074 -0.147474
-0.322846 -0.022574 -0.137974
-0.322846 -0.013074 -0.137974
-0.313346 -0.022574 -0.147474
-0.313346 -0.013074 -0.147474
-0.303846 -0.041574 -0.156974
-0.303846 -0.032074 -0.156974
-0.294346 -0.041574 -0.156974
-0.294346 -0.032074 -0.156974
-0.303846 -0.022574 -0.156974
-0.294346 -0.022574 -0.156974
-0.294346 -0.013074 -0.156974
-0.303846 -0.013074 -0.147474
-0.256346 -0.089074 -0.175974
-0.246846 -0.108074 -0.175974
-0.237346 -0.117574 -0.175974
-0.237346 -0.108074 -0.175974
-0.246846 -0.098574 -0.175974
-0.246846 -0.089074 -0.175974
-0.237346 -0.098574 -0.175974
-0.237346 -0.089074 -0.175974
-0.227846 -0.117574 -0.175974
-0.227846 -0.108074 -0.175974
-0.218346 -0.117574 -0.175974
-0.218346 -0.108074 -0.175974
-0.227846 -0.098574 -0.175974
-0.227846 -0.089074 -0.185474
-0.227846 -0.089074 -0.175974
-0.218346 -0.098574 -0.175974
-0.218346 -0.089074 -0.185474
-0.284846 -0.127074 -0.137974
-0.275346 -0.136574 -0.137974
-0.275346 -0.127074 -0.147474
-0.265846 -0.146074 -0.137974
-0.256346 -0.146074 -0.137974
-0.265846 -0.127074 -0.156974
-0.256346 -0.127074 -0.156974
-0.265846 -0.136574 -0.147474
-0.265846 -0.136574 -0.137974
-0.265846 -0.127074 -0.147474
-0.256346 -0.136574 -0.147474
-0.284846 -0.146074 -0.118974
-0.275346 -0.146074 -0.128474
-0.284846 -0.155574 -0.109474
-0.284846 -0.136574 -0.128474
-0.265846 -0.155574 -0.128474
-0.265846 -0.155574 -0.118974
-0.265846 -0.146074 -0.128474
-0.256346 -0.155574 -0.128474
-0.284846 -0.108074 -0.156974
-0.275346 -0.108074 -0.156974
-0.284846 -0.117574 -0.147474
-0.284846 -0.117574 -0.137974
-0.284846 -0.108074 -0.147474
-0.275346 -0.117574 -0.147474
-0.284846 -0.098574 -0.156974
-0.284846 -0.089074 -0.156974
-0.275346 -0.098574 -0.156974
-0.275346 -0.089074 -0.166474
-0.284846 -0.098574 -0.147474
-0.265846 -0.117574 -0.156974
-0.265846 -0.108074 -0.166474
-0.265846 -0.108074 -0.156974
-0.256346 -0.117574 -0.166474
-0.256346 -0.108074 -0.166474
-0.265846 -0.098574 -0.166474
-0.265846 -0.089074 -0.166474
-0.256346 -0.098574 -0.166474
-0.237346 -0.146074 -0.156974
-0.246846 -0.155574 -0.137974
-0.246846 -0.146074 -0.147474
-0.237346 -0.155574 -0.137974
-0.246846 -0.136574 -0.156974
-0.246846 -0.127074 -0.166474
-0.237346 -0.136574 -0.156974
-0.237346 -0.127074 -0.166474
-0.227846 -0.146074 -0.156974
-0.218346 -0.155574 -0.156974
-0.218346 -0.146074 -0.156974
-0.227846 -0.155574 -0.147474
-0.227846 -0.136574 -0.166474
-0.227846 -0.127074 -0.166474
-0.218346 -0.136574 -0.166474
-0.218346 -0.127074 -0.166474
-0.246846 -0.117574 -0.166474
-0.246846 -0.108074 -0.166474
-0.265846 -0.079574 -0.175974
-0.265846 -0.070074 -0.175974
-0.256346 -0.079574 -0.175974
-0.256346 -0.070074 -0.175974
-0.265846 -0.060574 -0.175974
-0.265846 -0.051074 -0.175974
-0.256346 -0.060574 -0.175974
-0.256346 -0.051074 -0.175974
-0.256346 -0.041574 -0.175974
-0.256346 -0.032074 -0.175974
-0.246846 -0.079574 -0.175974
-0.246846 -0.070074 -0.175974
-0.237346 -0.079574 -0.175974
-0.237346 -0.070074 -0.175974
-0.246846 -0.060574 -0.175974
-0.246846 -0.051074 -0.175974
-0.237346 -0.060574 -0.175974
-0.237346 -0.051074 -0.175974
-0.227846 -0.079574 -0.185474
-0.227846 -0.070074 -0.185474
-0.227846 -0.070074 -0.175974
-0.218346 -0.079574 -0.185474
-0.218346 -0.070074 -0.185474
-0.227846 -0.060574 -0.185474
-0.227846 -0.060574 -0.175974
-0.227846 -0.051074 -0.185474
-0.227846 -0.051074 -0.175974
-0.218346 -0.060574 -0.185474
-0.218346 -0.051074 -0.185474
-0.246846 -0.041574 -0.175974
-0.246846 -0.032074 -0.175974
-0.237346 -0.041574 -0.175974
-0.237346 -0.032074 -0.175974
-0.246846 -0.022574 -0.175974
-0.246846 -0.013074 -0.175974
-0.237346 -0.022574 -0.175974
-0.237346 -0.013074 -0.175974
-0.227846 -0.041574 -0.175974
-0.227846 -0.032074 -0.175974
-0.218346 -0.041574 -0.185474
-0.218346 -0.032074 -0.185474
-0.227846 -0.022574 -0.175974
-0.227846 -0.013074 -0.175974
-0.218346 -0.022574 -0.185474
-0.218346 -0.013074 -0.185474
-0.284846 -0.079574 -0.166474
-0.284846 -0.079574 -0.156974
-0.284846 -0.070074 -0.166474
-0.275346 -0.079574 -0.166474
-0.275346 -0.070074 -0.166474
-0.284846 -0.060574 -0.166474
-0.284846 -0.060574 -0.156974
-0.284846 -0.051074 -0.166474
-0.284846 -0.051074 -0.156974
-0.275346 -0.060574 -0.166474
-0.275346 -0.051074 -0.166474
-0.265846 -0.079574 -0.166474
-0.265846 -0.070074 -0.166474
-0.265846 -0.060574 -0.166474
-0.265846 -0.051074 -0.166474
-0.284846 -0.041574 -0.166474
-0.284846 -0.041574 -0.156974
-0.284846 -0.032074 -0.166474
-0.284846 -0.032074 -0.156974
-0.275346 -0.041574 -0.166474
-0.275346 -0.032074 -0.166474
-0.284846 -0.022574 -0.156974
-0.284846 -0.013074 -0.156974
-0.275346 -0.022574 -0.166474
-0.275346 -0.013074 -0.166474
-0.265846 -0.041574 -0.166474
-0.265846 -0.032074 -0.166474
-0.256346 -0.032074 -0.166474
-0.265846 -0.022574 -0.166474
-0.265846 -0.013074 -0.166474
-0.256346 -0.022574 -0.166474
-0.256346 -0.013074 -0.166474
-0.360846 -0.003574 -0.099974
-0.351346 -0.003574 -0.109474
-0.351346 0.005926 -0.109474
-0.351346 0.005926 -0.099974
-0.351346 0.015426 -0.099974
-0.351346 0.024926 -0.099974
-0.341846 -0.003574 -0.118974
-0.341846 0.005926 -0.118974
-0.332346 -0.003574 -0.128474
-0.332346 0.005926 -0.128474
-0.341846 0.005926 -0.109474
-0.332346 0.015426 -0.128474
-0.332346 0.015426 -0.118974
-0.332346 0.024926 -0.118974
-0.341846 0.015426 -0.109474
-0.341846 0.024926 -0.109474
-0.332346 0.024926 -0.109474
-0.351346 0.034426 -0.099974
-0.332346 0.034426 -0.118974
-0.332346 0.043926 -0.118974
-0.341846 0.034426 -0.109474
-0.341846 0.043926 -0.109474
-0.341846 0.043926 -0.099974
-0.332346 0.034426 -0.109474
-0.332346 0.043926 -0.109474
-0.341846 0.053426 -0.099974
-0.341846 0.062926 -0.099974
-0.332346 0.053426 -0.109474
-0.332346 0.062926 -0.109474
-0.322846 -0.003574 -0.137974
-0.322846 0.005926 -0.137974
-0.313346 -0.003574 -0.147474
-0.313346 0.005926 -0.147474
-0.313346 0.005926 -0.137974
-0.313346 0.015426 -0.147474
-0.313346 0.015426 -0.137974
-0.313346 0.024926 -0.137974
-0.294346 -0.003574 -0.156974
-0.303846 -0.003574 -0.147474
-0.303846 0.005926 -0.147474
-0.294346 0.005926 -0.147474
-0.294346 0.015426 -0.156974
-0.303846 0.015426 -0.147474
-0.303846 0.024926 -0.137974
-0.294346 0.015426 -0.147474
-0.294346 0.024926 -0.147474
-0.322846 0.005926 -0.128474
-0.322846 0.015426 -0.128474
-0.322846 0.024926 -0.128474
-0.313346 0.034426 -0.137974
-0.303846 0.034426 -0.137974
-0.303846 0.043926 -0.137974
-0.294346 0.034426 -0.147474
-0.294346 0.043926 -0.137974
-0.294346 0.053426 -0.137974
-0.294346 0.062926 -0.137974
-0.322846 0.034426 -0.128474
-0.322846 0.043926 -0.118974
-0.313346 0.034426 -0.128474
-0.313346 0.043926 -0.128474
-0.322846 0.053426 -0.118974
-0.322846 0.062926 -0.118974
-0.313346 0.053426 -0.128474
-0.313346 0.053426 -0.118974
-0.313346 0.062926 -0.118974
-0.303846 0.053426 -0.128474
-0.303846 0.062926 -0.128474
-0.294346 0.062926 -0.128474
-0.332346 0.072426 -0.109474
-0.332346 0.072426 -0.099974
-0.313346 0.072426 -0.118974
-0.313346 0.081926 -0.118974
-0.322846 0.072426 -0.109474
-0.322846 0.081926 -0.109474
-0.322846 0.081926 -0.099974
-0.313346 0.081926 -0.109474
-0.322846 0.091426 -0.099974
-0.313346 0.091426 -0.109474
-0.313346 0.100926 -0.109474
-0.313346 0.100926 -0.099974
-0.303846 0.072426 -0.118974
-0.303846 0.081926 -0.118974
-0.294346 0.072426 -0.128474
-0.294346 0.081926 -0.128474
-0.294346 0.081926 -0.118974
-0.303846 0.091426 -0.118974
-0.294346 0.091426 -0.118974
-0.294346 0.100926 -0.118974
-0.303846 0.100926 -0.109474
-0.313346 0.110426 -0.099974
-0.313346 0.119926 -0.099974
-0.322846 0.138926 -0.099974
-0.313346 0.129426 -0.099974
-0.313346 0.138926 -0.099974
-0.294346 0.110426 -0.118974
-0.303846 0.110426 -0.109474
-0.303846 0.119926 -0.099974
-0.294346 0.110426 -0.109474
-0.294346 0.119926 -0.109474
-0.303846 0.129426 -0.099974
-0.303846 0.138926 -0.099974
-0.294346 0.129426 -0.109474
-0.294346 0.129426 -0.099974
-0.294346 0.138926 -0.109474
-0.246846 -0.003574 -0.175974
-0.237346 -0.003574 -0.175974
-0.237346 0.005926 -0.175974
-0.227846 -0.003574 -0.175974
-0.227846 0.005926 -0.175974
-0.218346 -0.003574 -0.175974
-0.218346 0.005926 -0.175974
-0.227846 0.015426 -0.175974
-0.227846 0.024926 -0.175974
-0.218346 0.015426 -0.175974
-0.218346 0.024926 -0.175974
-0.237346 0.034426 -0.175974
-0.227846 0.034426 -0.175974
-0.227846 0.043926 -0.175974
-0.218346 0.034426 -0.175974
-0.218346 0.043926 -0.175974
-0.227846 0.053426 -0.175974
-0.218346 0.053426 -0.175974
-0.218346 0.062926 -0.175974
-0.284846 -0.003574 -0.156974
-0.284846 0.005926 -0.156974
-0.275346 -0.003574 -0.156974
-0.275346 0.005926 -0.156974
-0.284846 0.015426 -0.156974
-0.275346 0.015426 -0.156974
-0.275346 0.024926 -0.156974
-0.284846 0.024926 -0.147474
-0.265846 -0.003574 -0.166474
-0.265846 0.005926 -0.166474
-0.265846 0.005926 -0.156974
-0.256346 -0.003574 -0.166474
-0.256346 0.005926 -0.166474
-0.265846 0.015426 -0.156974
-0.265846 0.024926 -0.156974
-0.256346 0.015426 -0.166474
-0.256346 0.024926 -0.156974
-0.284846 0.034426 -0.147474
-0.284846 0.043926 -0.147474
-0.275346 0.034426 -0.147474
-0.275346 0.043926 -0.147474
-0.284846 0.053426 -0.137974
-0.284846 0.062926 -0.137974
-0.275346 0.053426 -0.147474
-0.275346 0.062926 -0.147474
-0.275346 0.062926 -0.137974
-0.265846 0.034426 -0.156974
-0.265846 0.043926 -0.156974
-0.256346 0.034426 -0.156974
-0.256346 0.043926 -0.156974
-0.256346 0.053426 -0.156974
-0.265846 0.053426 -0.147474
-0.265846 0.062926 -0.147474
-0.256346 0.062926 -0.147474
-0.246846 -0.003574 -0.166474
-0.246846 0.005926 -0.166474
-0.246846 0.015426 -0.166474
-0.246846 0.024926 -0.166474
-0.237346 0.015426 -0.166474
-0.237346 0.024926 -0.166474
-0.227846 0.015426 -0.166474
-0.246846 0.034426 -0.166474
-0.246846 0.043926 -0.166474
-0.237346 0.043926 -0.166474
-0.246846 0.053426 -0.166474
-0.246846 0.053426 -0.156974
-0.246846 0.062926 -0.156974
-0.237346 0.053426 -0.166474
-0.237346 0.062926 -0.166474
-0.227846 0.053426 -0.166474
-0.227846 0.062926 -0.166474
-0.284846 0.072426 -0.137974
-0.275346 0.072426 -0.137974
-0.275346 0.081926 -0.137974
-0.265846 0.072426 -0.147474
-0.265846 0.081926 -0.137974
-0.256346 0.072426 -0.147474
-0.256346 0.081926 -0.147474
-0.265846 0.091426 -0.137974
-0.256346 0.091426 -0.137974
-0.256346 0.100926 -0.137974
-0.284846 0.081926 -0.128474
-0.284846 0.091426 -0.128474
-0.284846 0.100926 -0.118974
-0.275346 0.091426 -0.128474
-0.275346 0.100926 -0.128474
-0.265846 0.100926 -0.128474
-0.284846 0.110426 -0.118974
-0.275346 0.110426 -0.128474
-0.275346 0.110426 -0.118974
-0.275346 0.119926 -0.118974
-0.284846 0.119926 -0.109474
-0.275346 0.129426 -0.118974
-0.284846 0.129426 -0.109474
-0.284846 0.138926 -0.109474
-0.275346 0.129426 -0.109474
-0.275346 0.138926 -0.109474
-0.265846 0.110426 -0.128474
-0.265846 0.119926 -0.118974
-0.256346 0.110426 -0.128474
-0.256346 0.119926 -0.128474
-0.265846 0.129426 -0.118974
-0.256346 0.129426 -0.118974
-0.256346 0.138926 -0.118974
-0.265846 0.138926 -0.109474
-0.237346 0.072426 -0.156974
-0.237346 0.081926 -0.156974
-0.246846 0.072426 -0.147474
-0.246846 0.081926 -0.147474
-0.246846 0.091426 -0.147474
-0.246846 0.091426 -0.137974
-0.246846 0.100926 -0.147474
-0.246846 0.100926 -0.137974
-0.237346 0.091426 -0.147474
-0.237346 0.100926 -0.147474
-0.227846 0.072426 -0.166474
-0.227846 0.072426 -0.156974
-0.227846 0.081926 -0.156974
-0.218346 0.072426 -0.166474
-0.218346 0.081926 -0.166474
-0.227846 0.091426 -0.156974
-0.227846 0.100926 -0.156974
-0.218346 0.091426 -0.156974
-0.218346 0.100926 -0.156974
-0.227846 0.100926 -0.147474
-0.246846 0.110426 -0.137974
-0.246846 0.119926 -0.137974
-0.237346 0.110426 -0.147474
-0.237346 0.119926 -0.137974
-0.227846 0.110426 -0.147474
-0.227846 0.119926 -0.147474
-0.227846 0.119926 -0.137974
-0.218346 0.110426 -0.147474
-0.218346 0.119926 -0.147474
-0.227846 0.129426 -0.137974
-0.218346 0.129426 -0.147474
-0.218346 0.138926 -0.137974
-0.246846 0.119926 -0.128474
-0.246846 0.129426 -0.128474
-0.246846 0.138926 -0.118974
-0.237346 0.129426 -0.128474
-0.237346 0.138926 -0.118974
-0.227846 0.138926 -0.128474
-0.208846 -0.127074 -0.175974
-0.199346 -0.127074 -0.175974
-0.189846 -0.127074 -0.175974
-0.180346 -0.127074 -0.175974
-0.208846 -0.117574 -0.175974
-0.208846 -0.108074 -0.185474
-0.208846 -0.108074 -0.175974
-0.199346 -0.117574 -0.175974
-0.199346 -0.108074 -0.185474
-0.199346 -0.089074 -0.194974
-0.208846 -0.098574 -0.185474
-0.208846 -0.089074 -0.185474
-0.199346 -0.098574 -0.185474
-0.189846 -0.117574 -0.185474
-0.189846 -0.108074 -0.185474
-0.180346 -0.117574 -0.185474
-0.180346 -0.108074 -0.185474
-0.189846 -0.089074 -0.194974
-0.180346 -0.098574 -0.194974
-0.180346 -0.089074 -0.194974
-0.189846 -0.098574 -0.185474
-0.170846 -0.127074 -0.175974
-0.161346 -0.127074 -0.175974
-0.151846 -0.127074 -0.175974
-0.170846 -0.117574 -0.185474
-0.170846 -0.117574 -0.175974
-0.170846 -0.108074 -0.185474
-0.161346 -0.117574 -0.175974
-0.161346 -0.108074 -0.185474
-0.170846 -0.089074 -0.194974
-0.161346 -0.089074 -0.194974
-0.170846 -0.098574 -0.185474
-0.161346 -0.098574 -0.185474
-0.151846 -0.117574 -0.175974
-0.151846 -0.108074 -0.185474
-0.151846 -0.108074 -0.175974
-0.142346 -0.117574 -0.175974
-0.142346 -0.108074 -0.175974
-0.151846 -0.089074 -0.194974
-0.142346 -0.089074 -0.194974
-0.151846 -0.098574 -0.185474
-0.142346 -0.098574 -0.185474
-0.208846 -0.155574 -0.156974
-0.208846 -0.146074 -0.166474
-0.199346 -0.155574 -0.156974
-0.199346 -0.146074 -0.166474
-0.208846 -0.136574 -0.166474
-0.199346 -0.136574 -0.166474
-0.189846 -0.155574 -0.156974
-0.189846 -0.146074 -0.166474
-0.180346 -0.155574 -0.156974
-0.180346 -0.146074 -0.166474
-0.189846 -0.136574 -0.166474
-0.180346 -0.136574 -0.166474
-0.170846 -0.155574 -0.156974
-0.170846 -0.146074 -0.166474
-0.170846 -0.146074 -0.156974
-0.161346 -0.155574 -0.156974
-0.161346 -0.146074 -0.156974
-0.170846 -0.136574 -0.166474
-0.161346 -0.136574 -0.166474
-0.151846 -0.155574 -0.156974
-0.151846 -0.146074 -0.156974
-0.142346 -0.155574 -0.156974
-0.142346 -0.146074 -0.156974
-0.151846 -0.136574 -0.166474
-0.142346 -0.136574 -0.166474
-0.142346 -0.127074 -0.166474
-0.208846 -0.070074 -0.194974
-0.199346 -0.079574 -0.194974
-0.199346 -0.070074 -0.194974
-0.208846 -0.079574 -0.185474
-0.208846 -0.070074 -0.185474
-0.208846 -0.060574 -0.194974
-0.208846 -0.051074 -0.194974
-0.199346 -0.060574 -0.194974
-0.199346 -0.051074 -0.194974
-0.208846 -0.060574 -0.185474
-0.208846 -0.051074 -0.185474
-0.189846 -0.079574 -0.194974
-0.189846 -0.070074 -0.194974
-0.180346 -0.079574 -0.194974
-0.180346 -0.070074 -0.194974
-0.189846 -0.060574 -0.194974
-0.189846 -0.051074 -0.194974
-0.180346 -0.060574 -0.194974
-0.180346 -0.051074 -0.194974
-0.208846 -0.041574 -0.194974
-0.208846 -0.032074 -0.194974
-0.199346 -0.041574 -0.194974
-0.199346 -0.032074 -0.194974
-0.208846 -0.041574 -0.185474
-0.208846 -0.032074 -0.185474
-0.199346 -0.022574 -0.194974
-0.199346 -0.013074 -0.194974
-0.208846 -0.022574 -0.185474
-0.208846 -0.013074 -0.185474
-0.189846 -0.041574 -0.194974
-0.189846 -0.032074 -0.194974
-0.180346 -0.041574 -0.194974
-0.180346 -0.032074 -0.204474
-0.189846 -0.022574 -0.194974
-0.189846 -0.013074 -0.194974
-0.180346 -0.022574 -0.204474
-0.180346 -0.013074 -0.194974
-0.170846 -0.079574 -0.194974
-0.170846 -0.070074 -0.194974
-0.161346 -0.079574 -0.194974
-0.161346 -0.070074 -0.194974
-0.170846 -0.060574 -0.194974
-0.170846 -0.051074 -0.194974
-0.161346 -0.060574 -0.194974
-0.161346 -0.051074 -0.194974
-0.151846 -0.079574 -0.194974
-0.151846 -0.070074 -0.194974
-0.142346 -0.079574 -0.194974
-0.142346 -0.070074 -0.194974
-0.151846 -0.060574 -0.194974
-0.151846 -0.051074 -0.194974
-0.142346 -0.060574 -0.194974
-0.142346 -0.051074 -0.194974
-0.170846 -0.041574 -0.194974
-0.170846 -0.032074 -0.204474
-0.161346 -0.041574 -0.194974
-0.161346 -0.032074 -0.194974
-0.170846 -0.022574 -0.204474
-0.170846 -0.013074 -0.194974
-0.161346 -0.022574 -0.194974
-0.161346 -0.013074 -0.194974
-0.151846 -0.041574 -0.194974
-0.151846 -0.032074 -0.194974
-0.142346 -0.041574 -0.194974
-0.142346 -0.032074 -0.194974
-0.151846 -0.022574 -0.194974
-0.151846 -0.013074 -0.194974
-0.142346 -0.022574 -0.194974
-0.142346 -0.013074 -0.194974
-0.123346 -0.127074 -0.175974
-0.104346 -0.146074 -0.175974
-0.113846 -0.136574 -0.175974
-0.113846 -0.127074 -0.175974
-0.104346 -0.136574 -0.175974
-0.104346 -0.127074 -0.175974
-0.132846 -0.117574 -0.175974
-0.132846 -0.108074 -0.175974
-0.123346 -0.117574 -0.175974
-0.123346 -0.108074 -0.185474
-0.132846 -0.098574 -0.185474
-0.132846 -0.089074 -0.185474
-0.123346 -0.098574 -0.185474
-0.123346 -0.089074 -0.185474
-0.113846 -0.117574 -0.175974
-0.113846 -0.108074 -0.185474
-0.104346 -0.117574 -0.175974
-0.104346 -0.108074 -0.185474
-0.113846 -0.098574 -0.185474
-0.113846 -0.089074 -0.185474
-0.104346 -0.098574 -0.185474
-0.104346 -0.089074 -0.185474
-0.094846 -0.146074 -0.175974
-0.094846 -0.136574 -0.175974
-0.094846 -0.127074 -0.175974
-0.085346 -0.136574 -0.175974
-0.085346 -0.127074 -0.175974
-0.066346 -0.146074 -0.175974
-0.075846 -0.136574 -0.175974
-0.075846 -0.127074 -0.175974
-0.066346 -0.136574 -0.175974
-0.066346 -0.127074 -0.175974
-0.094846 -0.117574 -0.175974
-0.094846 -0.108074 -0.185474
-0.085346 -0.117574 -0.175974
-0.085346 -0.108074 -0.185474
-0.085346 -0.108074 -0.175974
-0.094846 -0.098574 -0.185474
-0.094846 -0.089074 -0.185474
-0.085346 -0.098574 -0.185474
-0.085346 -0.089074 -0.185474
-0.075846 -0.117574 -0.175974
-0.075846 -0.108074 -0.175974
-0.066346 -0.117574 -0.175974
-0.066346 -0.108074 -0.185474
-0.066346 -0.089074 -0.194974
-0.075846 -0.098574 -0.185474
-0.075846 -0.089074 -0.185474
-0.066346 -0.098574 -0.185474
-0.132846 -0.155574 -0.156974
-0.132846 -0.146074 -0.166474
-0.132846 -0.146074 -0.156974
-0.123346 -0.155574 -0.166474
-0.123346 -0.146074 -0.166474
-0.132846 -0.136574 -0.166474
-0.132846 -0.127074 -0.166474
-0.123346 -0.136574 -0.166474
-0.113846 -0.155574 -0.166474
-0.113846 -0.146074 -0.166474
-0.104346 -0.155574 -0.166474
-0.094846 -0.155574 -0.166474
-0.085346 -0.155574 -0.166474
-0.085346 -0.146074 -0.166474
-0.075846 -0.155574 -0.166474
-0.075846 -0.146074 -0.166474
-0.066346 -0.155574 -0.166474
-0.066346 -0.146074 -0.166474
-0.132846 -0.079574 -0.194974
-0.132846 -0.070074 -0.194974
-0.123346 -0.079574 -0.194974
-0.123346 -0.070074 -0.194974
-0.132846 -0.060574 -0.194974
-0.132846 -0.051074 -0.194974
-0.123346 -0.060574 -0.194974
-0.123346 -0.051074 -0.194974
-0.113846 -0.079574 -0.194974
-0.113846 -0.070074 -0.194974
-0.104346 -0.079574 -0.194974
-0.104346 -0.070074 -0.194974
-0.113846 -0.060574 -0.194974
-0.113846 -0.051074 -0.194974
-0.104346 -0.060574 -0.194974
-0.104346 -0.051074 -0.194974
-0.132846 -0.041574 -0.194974
-0.132846 -0.032074 -0.194974
-0.123346 -0.041574 -0.194974
-0.123346 -0.032074 -0.194974
-0.132846 -0.022574 -0.194974
-0.132846 -0.013074 -0.194974
-0.123346 -0.022574 -0.194974
-0.123346 -0.013074 -0.194974
-0.113846 -0.041574 -0.194974
-0.113846 -0.032074 -0.204474
-0.113846 -0.032074 -0.194974
-0.104346 -0.041574 -0.194974
-0.104346 -0.032074 -0.204474
-0.113846 -0.022574 -0.204474
-0.113846 -0.022574 -0.194974
-0.113846 -0.013074 -0.204474
-0.113846 -0.013074 -0.194974
-0.104346 -0.022574 -0.204474
-0.104346 -0.013074 -0.204474
-0.094846 -0.079574 -0.194974
-0.094846 -0.070074 -0.194974
-0.085346 -0.079574 -0.194974
-0.085346 -0.070074 -0.194974
-0.094846 -0.060574 -0.194974
-0.094846 -0.051074 -0.194974
-0.085346 -0.060574 -0.194974
-0.085346 -0.051074 -0.194974
-0.075846 -0.079574 -0.194974
-0.075846 -0.070074 -0.194974
-0.066346 -0.079574 -0.204474
-0.066346 -0.079574 -0.194974
-0.066346 -0.070074 -0.204474
-0.066346 -0.070074 -0.194974
-0.075846 -0.060574 -0.194974
-0.075846 -0.051074 -0.204474
-0.066346 -0.060574 -0.204474
-0.066346 -0.060574 -0.194974
-0.066346 -0.051074 -0.204474
-0.066346 -0.041574 -0.213974
-0.066346 -0.032074 -0.213974
-0.066346 -0.022574 -0.213974
-0.066346 -0.013074 -0.213974
-0.094846 -0.041574 -0.204474
-0.094846 -0.041574 -0.194974
-0.094846 -0.032074 -0.204474
-0.085346 -0.041574 -0.204474
-0.085346 -0.032074 -0.204474
-0.094846 -0.022574 -0.204474
-0.094846 -0.013074 -0.204474
-0.085346 -0.022574 -0.204474
-0.085346 -0.013074 -0.204474
-0.075846 -0.041574 -0.204474
-0.075846 -0.032074 -0.204474
-0.066346 -0.041574 -0.204474
-0.075846 -0.022574 -0.204474
-0.075846 -0.013074 -0.204474
-0.066346 -0.013074 -0.204474
-0.199346 -0.003574 -0.194974
-0.199346 0.005926 -0.194974
-0.208846 -0.003574 -0.185474
-0.208846 0.005926 -0.185474
-0.199346 0.015426 -0.194974
-0.208846 0.015426 -0.185474
-0.208846 0.015426 -0.175974
-0.208846 0.024926 -0.175974
-0.199346 0.024926 -0.185474
-0.189846 -0.003574 -0.194974
-0.189846 0.005926 -0.194974
-0.180346 -0.003574 -0.194974
-0.180346 0.005926 -0.194974
-0.189846 0.015426 -0.194974
-0.189846 0.024926 -0.194974
-0.180346 0.015426 -0.194974
-0.180346 0.024926 -0.194974
-0.189846 0.024926 -0.185474
-0.208846 0.034426 -0.175974
-0.208846 0.043926 -0.175974
-0.199346 0.034426 -0.175974
-0.199346 0.043926 -0.175974
-0.208846 0.053426 -0.175974
-0.208846 0.062926 -0.175974
-0.199346 0.053426 -0.175974
-0.199346 0.062926 -0.175974
-0.180346 0.034426 -0.194974
-0.189846 0.034426 -0.185474
-0.189846 0.043926 -0.185474
-0.189846 0.043926 -0.175974
-0.180346 0.034426 -0.185474
-0.180346 0.043926 -0.185474
-0.189846 0.053426 -0.175974
-0.189846 0.062926 -0.175974
-0.180346 0.053426 -0.185474
-0.180346 0.062926 -0.175974
-0.170846 -0.003574 -0.194974
-0.170846 0.005926 -0.194974
-0.161346 -0.003574 -0.194974
-0.161346 0.005926 -0.194974
-0.170846 0.015426 -0.194974
-0.170846 0.024926 -0.194974
-0.161346 0.015426 -0.204474
-0.161346 0.024926 -0.194974
-0.151846 -0.003574 -0.194974
-0.151846 0.005926 -0.194974
-0.142346 -0.003574 -0.194974
-0.142346 0.005926 -0.194974
-0.151846 0.015426 -0.204474
-0.151846 0.024926 -0.194974
-0.142346 0.015426 -0.204474
-0.142346 0.024926 -0.194974
-0.170846 0.034426 -0.194974
-0.170846 0.043926 -0.194974
-0.161346 0.034426 -0.194974
-0.161346 0.043926 -0.194974
-0.170846 0.043926 -0.185474
-0.170846 0.053426 -0.185474
-0.170846 0.062926 -0.185474
-0.170846 0.062926 -0.175974
-0.161346 0.053426 -0.185474
-0.161346 0.062926 -0.185474
-0.151846 0.034426 -0.194974
-0.151846 0.043926 -0.194974
-0.142346 0.034426 -0.194974
-0.142346 0.043926 -0.194974
-0.142346 0.053426 -0.194974
-0.151846 0.053426 -0.185474
-0.151846 0.062926 -0.185474
-0.142346 0.053426 -0.185474
-0.142346 0.062926 -0.185474
-0.199346 0.072426 -0.175974
-0.189846 0.072426 -0.175974
-0.189846 0.081926 -0.175974
-0.180346 0.072426 -0.175974
-0.180346 0.081926 -0.175974
-0.189846 0.091426 -0.175974
-0.180346 0.091426 -0.175974
-0.170846 0.072426 -0.175974
-0.170846 0.081926 -0.175974
-0.161346 0.072426 -0.175974
-0.161346 0.081926 -0.175974
-0.170846 0.091426 -0.175974
-0.170846 0.100926 -0.175974
-0.161346 0.091426 -0.175974
-0.161346 0.100926 -0.175974
-0.151846 0.072426 -0.185474
-0.151846 0.072426 -0.175974
-0.151846 0.081926 -0.175974
-0.142346 0.072426 -0.185474
-0.142346 0.081926 -0.175974
-0.151846 0.091426 -0.175974
-0.151846 0.100926 -0.175974
-0.142346 0.091426 -0.175974
-0.142346 0.100926 -0.175974
-0.208846 0.072426 -0.166474
-0.208846 0.081926 -0.166474
-0.199346 0.081926 -0.166474
-0.208846 0.091426 -0.166474
-0.208846 0.100926 -0.166474
-0.208846 0.100926 -0.156974
-0.199346 0.091426 -0.166474
-0.199346 0.100926 -0.166474
-0.189846 0.091426 -0.166474
-0.189846 0.100926 -0.166474
-0.180346 0.100926 -0.166474
-0.208846 0.110426 -0.156974
-0.199346 0.110426 -0.156974
-0.199346 0.119926 -0.156974
-0.208846 0.119926 -0.147474
-0.208846 0.129426 -0.147474
-0.208846 0.138926 -0.137974
-0.199346 0.129426 -0.147474
-0.199346 0.138926 -0.137974
-0.189846 0.110426 -0.166474
-0.189846 0.119926 -0.156974
-0.180346 0.110426 -0.166474
-0.180346 0.119926 -0.156974
-0.189846 0.129426 -0.156974
-0.180346 0.129426 -0.156974
-0.189846 0.129426 -0.147474
-0.189846 0.138926 -0.147474
-0.180346 0.129426 -0.147474
-0.180346 0.138926 -0.147474
-0.170846 0.100926 -0.166474
-0.170846 0.110426 -0.166474
-0.170846 0.119926 -0.166474
