ply
format ascii 1.0
element vertex 1652
property float x
property float y
property float z
end_header
0.015844 0.290857 -0.509142
0.015844 0.315857 -0.509142
-0.009155 0.340857 -0.509142
-0.009155 0.365857 -0.509142
0.015844 0.340857 -0.509142
0.015844 0.365857 -0.509142
-0.059155 0.390857 -0.509142
-0.059155 0.415857 -0.509142
-0.034155 0.390857 -0.509142
-0.034155 0.415857 -0.509142
-0.059155 0.440857 -0.509142
-0.059155 0.465857 -0.509142
-0.034155 0.440857 -0.509142
-0.034155 0.465857 -0.509142
-0.009155 0.390857 -0.509142
-0.009155 0.415857 -0.509142
0.015844 0.390857 -0.509142
0.015844 0.415857 -0.509142
-0.009155 0.440857 -0.509142
-0.009155 0.465857 -0.509142
0.015844 0.440857 -0.509142
0.015844 0.465857 -0.509142
0.040845 0.290857 -0.509142
0.040845 0.315857 -0.509142
0.065845 0.290857 -0.509142
0.065845 0.315857 -0.509142
0.040845 0.340857 -0.509142
0.040845 0.365857 -0.509142
0.065845 0.340857 -0.509142
0.065845 0.365857 -0.509142
0.090844 0.290857 -0.509142
0.090844 0.315857 -0.509142
0.115845 0.290857 -0.509142
0.115845 0.315857 -0.509142
0.090844 0.340857 -0.509142
0.090844 0.365857 -0.509142
0.115845 0.340857 -0.509142
0.115845 0.365857 -0.509142
0.040845 0.390857 -0.509142
0.040845 0.415857 -0.509142
0.065845 0.390857 -0.509142
0.065845 0.415857 -0.509142
0.040845 0.440857 -0.509142
0.040845 0.465857 -0.509142
0.065845 0.440857 -0.509142
0.065845 0.465857 -0.509142
0.090844 0.390857 -0.509142
0.090844 0.415857 -0.509142
0.115845 0.390857 -0.509142
0.115845 0.415857 -0.509142
0.090844 0.440857 -0.509142
0.090844 0.465857 -0.509142
0.115845 0.440857 -0.509142
0.115845 0.465857 -0.509142
-0.059155 0.490857 -0.509142
-0.059155 0.490857 -0.484142
-0.034155 0.490857 -0.509142
-0.034155 0.490857 -0.484142
-0.009155 0.490857 -0.509142
-0.009155 0.490857 -0.484142
0.015844 0.490857 -0.509142
0.015844 0.490857 -0.484142
0.040845 0.490857 -0.509142
0.040845 0.490857 -0.484142
0.065845 0.490857 -0.509142
0.065845 0.490857 -0.484142
0.090844 0.490857 -0.509142
0.090844 0.490857 -0.484142
0.115845 0.490857 -0.509142
0.115845 0.490857 -0.484142
0.140844 0.290857 -0.509142
0.140844 0.315857 -0.509142
0.165845 0.290857 -0.509142
0.165845 0.315857 -0.509142
0.140844 0.340857 -0.509142
0.140844 0.365857 -0.509142
0.165845 0.340857 -0.509142
0.165845 0.365857 -0.509142
0.190845 0.290857 -0.509142
0.190845 0.315857 -0.509142
0.215844 0.290857 -0.509142
0.215844 0.315857 -0.509142
0.190845 0.340857 -0.509142
0.190845 0.365857 -0.509142
0.215844 0.340857 -0.509142
0.215844 0.365857 -0.509142
0.140844 0.390857 -0.509142
0.140844 0.415857 -0.509142
0.165845 0.390857 -0.509142
0.165845 0.415857 -0.509142
0.140844 0.440857 -0.509142
0.140844 0.465857 -0.509142
0.165845 0.440857 -0.509142
0.165845 0.465857 -0.509142
0.190845 0.390857 -0.509142
0.190845 0.415857 -0.509142
0.215844 0.390857 -0.509142
0.215844 0.415857 -0.509142
0.190845 0.440857 -0.509142
0.190845 0.465857 -0.509142
0.215844 0.440857 -0.509142
0.215844 0.465857 -0.509142
0.240845 0.290857 -0.509142
0.240845 0.315857 -0.509142
0.265844 0.290857 -0.509142
0.265844 0.315857 -0.509142
0.240845 0.340857 -0.509142
0.240845 0.365857 -0.509142
0.265844 0.340857 -0.509142
0.265844 0.365857 -0.509142
0.290845 0.290857 -0.509142
0.290845 0.315857 -0.509142
0.315845 0.290857 -0.509142
0.315845 0.315857 -0.509142
0.290845 0.340857 -0.509142
0.290845 0.365857 -0.509142
0.315845 0.340857 -0.509142
0.315845 0.365857 -0.509142
0.240845 0.390857 -0.509142
0.240845 0.415857 -0.509142
0.265844 0.390857 -0.509142
0.265844 0.415857 -0.509142
0.240845 0.440857 -0.509142
0.240845 0.465857 -0.509142
0.265844 0.440857 -0.509142
0.265844 0.465857 -0.509142
0.290845 0.390857 -0.509142
0.290845 0.415857 -0.509142
0.315845 0.390857 -0.509142
0.315845 0.415857 -0.509142
0.290845 0.440857 -0.509142
0.290845 0.465857 -0.509142
0.315845 0.440857 -0.509142
0.315845 0.465857 -0.509142
0.140844 0.490857 -0.509142
0.140844 0.490857 -0.484142
0.165845 0.490857 -0.509142
0.165845 0.490857 -0.484142
0.190845 0.490857 -0.509142
0.190845 0.490857 -0.484142
0.215844 0.490857 -0.509142
0.215844 0.490857 -0.484142
0.240845 0.490857 -0.509142
0.240845 0.490857 -0.484142
0.265844 0.490857 -0.509142
0.265844 0.490857 -0.484142
0.290845 0.490857 -0.509142
0.290845 0.490857 -0.484142
0.315845 0.490857 -0.509142
0.315845 0.490857 -0.484142
0.340844 -0.509143 -0.509142
0.340844 -0.509143 -0.484142
0.340844 -0.484143 -0.509142
0.365845 -0.509143 -0.509142
0.365845 -0.509143 -0.484142
0.365845 -0.484143 -0.509142
0.340844 -0.459143 -0.509142
0.340844 -0.434143 -0.509142
0.365845 -0.459143 -0.509142
0.365845 -0.434143 -0.509142
0.390844 -0.509143 -0.509142
0.390844 -0.509143 -0.484142
0.390844 -0.484143 -0.509142
0.415845 -0.509143 -0.509142
0.415845 -0.509143 -0.484142
0.415845 -0.484143 -0.509142
0.390844 -0.459143 -0.509142
0.390844 -0.434143 -0.509142
0.415845 -0.459143 -0.509142
0.415845 -0.434143 -0.509142
0.340844 -0.409143 -0.509142
0.340844 -0.384143 -0.509142
0.365845 -0.409143 -0.509142
0.365845 -0.384143 -0.509142
0.340844 -0.359143 -0.509142
0.340844 -0.334143 -0.509142
0.365845 -0.359143 -0.509142
0.365845 -0.334143 -0.509142
0.390844 -0.409143 -0.509142
0.390844 -0.384143 -0.509142
0.415845 -0.409143 -0.509142
0.415845 -0.384143 -0.509142
0.390844 -0.359143 -0.509142
0.390844 -0.334143 -0.509142
0.415845 -0.359143 -0.509142
0.415845 -0.334143 -0.509142
0.440845 -0.509143 -0.509142
0.440845 -0.509143 -0.484142
0.440845 -0.484143 -0.509142
0.465844 -0.509143 -0.509142
0.465844 -0.509143 -0.484142
0.465844 -0.484143 -0.509142
0.440845 -0.459143 -0.509142
0.440845 -0.434143 -0.509142
0.465844 -0.459143 -0.509142
0.465844 -0.434143 -0.509142
0.490845 -0.509143 -0.509142
0.490845 -0.509143 -0.484142
0.490845 -0.484143 -0.509142
0.490845 -0.484143 -0.484142
0.490845 -0.459143 -0.509142
0.490845 -0.459143 -0.484142
0.490845 -0.434143 -0.509142
0.490845 -0.434143 -0.484142
0.440845 -0.409143 -0.509142
0.440845 -0.384143 -0.509142
0.465844 -0.409143 -0.509142
0.465844 -0.384143 -0.509142
0.440845 -0.359143 -0.509142
0.440845 -0.334143 -0.509142
0.465844 -0.359143 -0.509142
0.465844 -0.334143 -0.509142
0.490845 -0.409143 -0.509142
0.490845 -0.409143 -0.484142
0.490845 -0.384143 -0.509142
0.490845 -0.384143 -0.484142
0.490845 -0.359143 -0.509142
0.490845 -0.359143 -0.484142
0.490845 -0.334143 -0.509142
0.490845 -0.334143 -0.484142
0.340844 -0.309143 -0.509142
0.340844 -0.284143 -0.509142
0.365845 -0.309143 -0.509142
0.365845 -0.284143 -0.509142
0.340844 -0.259143 -0.509142
0.340844 -0.234143 -0.509142
0.365845 -0.259143 -0.509142
0.365845 -0.234143 -0.509142
0.390844 -0.309143 -0.509142
0.390844 -0.284143 -0.509142
0.415845 -0.309143 -0.509142
0.415845 -0.284143 -0.509142
0.390844 -0.259143 -0.509142
0.390844 -0.234143 -0.509142
0.415845 -0.259143 -0.509142
0.415845 -0.234143 -0.509142
0.340844 -0.209143 -0.509142
0.340844 -0.184143 -0.509142
0.365845 -0.209143 -0.509142
0.365845 -0.184143 -0.509142
0.340844 -0.159143 -0.509142
0.340844 -0.134143 -0.509142
0.365845 -0.159143 -0.509142
0.365845 -0.134143 -0.509142
0.390844 -0.209143 -0.509142
0.390844 -0.184143 -0.509142
0.415845 -0.209143 -0.509142
0.415845 -0.184143 -0.509142
0.390844 -0.159143 -0.509142
0.390844 -0.134143 -0.509142
0.415845 -0.159143 -0.509142
0.415845 -0.134143 -0.509142
0.440845 -0.309143 -0.509142
0.440845 -0.284143 -0.509142
0.465844 -0.309143 -0.509142
0.465844 -0.284143 -0.509142
0.440845 -0.259143 -0.509142
0.440845 -0.234143 -0.509142
0.465844 -0.259143 -0.509142
0.465844 -0.234143 -0.509142
0.490845 -0.309143 -0.509142
0.490845 -0.309143 -0.484142
0.490845 -0.284143 -0.509142
0.490845 -0.284143 -0.484142
0.490845 -0.259143 -0.509142
0.490845 -0.259143 -0.484142
0.490845 -0.234143 -0.509142
0.490845 -0.234143 -0.484142
0.440845 -0.209143 -0.509142
0.440845 -0.184143 -0.509142
0.465844 -0.209143 -0.509142
0.465844 -0.184143 -0.509142
0.440845 -0.159143 -0.509142
0.440845 -0.134143 -0.509142
0.465844 -0.159143 -0.509142
0.465844 -0.134143 -0.509142
0.490845 -0.209143 -0.509142
0.490845 -0.209143 -0.484142
0.490845 -0.184143 -0.509142
0.490845 -0.184143 -0.484142
0.490845 -0.159143 -0.509142
0.490845 -0.159143 -0.484142
0.490845 -0.134143 -0.509142
0.490845 -0.134143 -0.484142
0.340844 -0.109143 -0.509142
0.340844 -0.084143 -0.509142
0.365845 -0.109143 -0.509142
0.365845 -0.084143 -0.509142
0.340844 -0.059143 -0.509142
0.340844 -0.034143 -0.509142
0.365845 -0.059143 -0.509142
0.365845 -0.034143 -0.509142
0.390844 -0.109143 -0.509142
0.390844 -0.084143 -0.509142
0.415845 -0.109143 -0.509142
0.415845 -0.084143 -0.509142
0.390844 -0.059143 -0.509142
0.390844 -0.034143 -0.509142
0.415845 -0.059143 -0.509142
0.415845 -0.034143 -0.509142
0.340844 -0.009143 -0.509142
0.340844 0.015857 -0.509142
0.365845 -0.009143 -0.509142
0.365845 0.015857 -0.509142
0.340844 0.040857 -0.509142
0.340844 0.065857 -0.509142
0.365845 0.040857 -0.509142
0.365845 0.065857 -0.509142
0.390844 -0.009143 -0.509142
0.390844 0.015857 -0.509142
0.415845 -0.009143 -0.509142
0.415845 0.015857 -0.509142
0.390844 0.040857 -0.509142
0.390844 0.065857 -0.509142
0.415845 0.040857 -0.509142
0.415845 0.065857 -0.509142
0.440845 -0.109143 -0.509142
0.440845 -0.084143 -0.509142
0.465844 -0.109143 -0.509142
0.465844 -0.084143 -0.509142
0.440845 -0.059143 -0.509142
0.440845 -0.034143 -0.509142
0.465844 -0.059143 -0.509142
0.465844 -0.034143 -0.509142
0.490845 -0.109143 -0.509142
0.490845 -0.109143 -0.484142
0.490845 -0.084143 -0.509142
0.490845 -0.084143 -0.484142
0.490845 -0.059143 -0.509142
0.490845 -0.059143 -0.484142
0.490845 -0.034143 -0.509142
0.490845 -0.034143 -0.484142
0.440845 -0.009143 -0.509142
0.440845 0.015857 -0.509142
0.465844 -0.009143 -0.509142
0.465844 0.015857 -0.509142
0.440845 0.040857 -0.509142
0.440845 0.065857 -0.509142
0.465844 0.040857 -0.509142
0.465844 0.065857 -0.509142
0.490845 -0.009143 -0.509142
0.490845 -0.009143 -0.484142
0.490845 0.015857 -0.509142
0.490845 0.015857 -0.484142
0.490845 0.040857 -0.509142
0.490845 0.040857 -0.484142
0.490845 0.065857 -0.509142
0.490845 0.065857 -0.484142
0.340844 0.090857 -0.509142
0.340844 0.115857 -0.509142
0.365845 0.090857 -0.509142
0.365845 0.115857 -0.509142
0.340844 0.140857 -0.509142
0.340844 0.165857 -0.509142
0.365845 0.140857 -0.509142
0.365845 0.165857 -0.509142
0.390844 0.090857 -0.509142
0.390844 0.115857 -0.509142
0.415845 0.090857 -0.509142
0.415845 0.115857 -0.509142
0.390844 0.140857 -0.509142
0.390844 0.165857 -0.509142
0.415845 0.140857 -0.509142
0.415845 0.165857 -0.509142
0.340844 0.190857 -0.509142
0.340844 0.215857 -0.509142
0.365845 0.190857 -0.509142
0.365845 0.215857 -0.509142
0.340844 0.240857 -0.509142
0.340844 0.265857 -0.509142
0.365845 0.240857 -0.509142
0.365845 0.265857 -0.509142
0.390844 0.190857 -0.509142
0.390844 0.215857 -0.509142
0.415845 0.190857 -0.509142
0.415845 0.215857 -0.509142
0.390844 0.240857 -0.509142
0.390844 0.265857 -0.509142
0.415845 0.240857 -0.509142
0.415845 0.265857 -0.509142
0.440845 0.090857 -0.509142
0.440845 0.115857 -0.509142
0.465844 0.090857 -0.509142
0.465844 0.115857 -0.509142
0.440845 0.140857 -0.509142
0.440845 0.165857 -0.509142
0.465844 0.140857 -0.509142
0.465844 0.165857 -0.509142
0.490845 0.090857 -0.509142
0.490845 0.090857 -0.484142
0.490845 0.115857 -0.509142
0.490845 0.115857 -0.484142
0.490845 0.140857 -0.509142
0.490845 0.140857 -0.484142
0.490845 0.165857 -0.509142
0.490845 0.165857 -0.484142
0.440845 0.190857 -0.509142
0.440845 0.215857 -0.509142
0.465844 0.190857 -0.509142
0.465844 0.215857 -0.509142
0.440845 0.240857 -0.509142
0.440845 0.265857 -0.509142
0.465844 0.240857 -0.509142
0.465844 0.265857 -0.509142
0.490845 0.190857 -0.509142
0.490845 0.190857 -0.484142
0.490845 0.215857 -0.509142
0.490845 0.215857 -0.484142
0.490845 0.240857 -0.509142
0.490845 0.240857 -0.484142
0.490845 0.265857 -0.509142
0.490845 0.265857 -0.484142
0.340844 0.290857 -0.509142
0.340844 0.315857 -0.509142
0.365845 0.290857 -0.509142
0.365845 0.315857 -0.509142
0.340844 0.340857 -0.509142
0.340844 0.365857 -0.509142
0.365845 0.340857 -0.509142
0.365845 0.365857 -0.509142
0.390844 0.290857 -0.509142
0.390844 0.315857 -0.509142
0.415845 0.290857 -0.509142
0.415845 0.315857 -0.509142
0.390844 0.340857 -0.509142
0.390844 0.365857 -0.509142
0.415845 0.340857 -0.509142
0.415845 0.365857 -0.509142
0.340844 0.390857 -0.509142
0.340844 0.415857 -0.509142
0.365845 0.390857 -0.509142
0.365845 0.415857 -0.509142
0.340844 0.440857 -0.509142
0.340844 0.465857 -0.509142
0.365845 0.440857 -0.509142
0.365845 0.465857 -0.509142
0.390844 0.390857 -0.509142
0.390844 0.415857 -0.509142
0.415845 0.390857 -0.509142
0.415845 0.415857 -0.509142
0.390844 0.440857 -0.509142
0.390844 0.465857 -0.509142
0.415845 0.440857 -0.509142
0.415845 0.465857 -0.509142
0.440845 0.290857 -0.509142
0.440845 0.315857 -0.509142
0.465844 0.290857 -0.509142
0.465844 0.315857 -0.509142
0.440845 0.340857 -0.509142
0.440845 0.365857 -0.509142
0.465844 0.340857 -0.509142
0.465844 0.365857 -0.509142
0.490845 0.290857 -0.509142
0.490845 0.290857 -0.484142
0.490845 0.315857 -0.509142
0.490845 0.315857 -0.484142
0.490845 0.340857 -0.509142
0.490845 0.340857 -0.484142
0.490845 0.365857 -0.509142
0.490845 0.365857 -0.484142
0.440845 0.390857 -0.509142
0.440845 0.415857 -0.509142
0.465844 0.390857 -0.509142
0.465844 0.415857 -0.509142
0.440845 0.440857 -0.509142
0.440845 0.465857 -0.509142
0.465844 0.440857 -0.509142
0.465844 0.465857 -0.509142
0.490845 0.390857 -0.509142
0.490845 0.390857 -0.484142
0.490845 0.415857 -0.509142
0.490845 0.415857 -0.484142
0.490845 0.440857 -0.509142
0.490845 0.440857 -0.484142
0.490845 0.465857 -0.509142
0.490845 0.465857 -0.484142
0.340844 0.490857 -0.509142
0.340844 0.490857 -0.484142
0.365845 0.490857 -0.509142
0.365845 0.490857 -0.484142
0.390844 0.490857 -0.509142
0.390844 0.490857 -0.484142
0.415845 0.490857 -0.509142
0.415845 0.490857 -0.484142
0.440845 0.490857 -0.509142
0.440845 0.490857 -0.484142
0.465844 0.490857 -0.509142
0.465844 0.490857 -0.484142
0.490845 0.490857 -0.509142
0.490845 0.490857 -0.484142
-0.509156 -0.509143 -0.459142
-0.509156 -0.509143 -0.434142
-0.509156 -0.484143 -0.459142
-0.509156 -0.484143 -0.434142
-0.484155 -0.509143 -0.459142
-0.484155 -0.509143 -0.434142
-0.509156 -0.509143 -0.409142
-0.509156 -0.509143 -0.384142
-0.509156 -0.484143 -0.409142
-0.509156 -0.484143 -0.384142
-0.484155 -0.509143 -0.409142
-0.484155 -0.509143 -0.384142
-0.509156 -0.459143 -0.459142
-0.509156 -0.459143 -0.434142
-0.509156 -0.434143 -0.459142
-0.509156 -0.434143 -0.434142
-0.509156 -0.459143 -0.409142
-0.509156 -0.459143 -0.384142
-0.509156 -0.434143 -0.409142
-0.509156 -0.434143 -0.384142
-0.509156 -0.509143 -0.359142
-0.509156 -0.509143 -0.334142
-0.509156 -0.484143 -0.359142
-0.509156 -0.484143 -0.334142
-0.484155 -0.509143 -0.359142
-0.484155 -0.509143 -0.334142
-0.509156 -0.509143 -0.309142
-0.509156 -0.509143 -0.284142
-0.509156 -0.484143 -0.309142
-0.509156 -0.484143 -0.284142
-0.484155 -0.509143 -0.309142
-0.484155 -0.509143 -0.284142
-0.509156 -0.459143 -0.359142
-0.509156 -0.459143 -0.334142
-0.509156 -0.434143 -0.359142
-0.509156 -0.434143 -0.334142
-0.509156 -0.459143 -0.309142
-0.509156 -0.459143 -0.284142
-0.509156 -0.434143 -0.309142
-0.509156 -0.434143 -0.284142
-0.509156 -0.409143 -0.459142
-0.509156 -0.409143 -0.434142
-0.509156 -0.384143 -0.459142
-0.509156 -0.384143 -0.434142
-0.509156 -0.409143 -0.409142
-0.509156 -0.409143 -0.384142
-0.509156 -0.384143 -0.409142
-0.509156 -0.384143 -0.384142
-0.509156 -0.359143 -0.459142
-0.509156 -0.359143 -0.434142
-0.509156 -0.334143 -0.459142
-0.509156 -0.334143 -0.434142
-0.509156 -0.359143 -0.409142
-0.509156 -0.359143 -0.384142
-0.509156 -0.334143 -0.409142
-0.509156 -0.334143 -0.384142
-0.509156 -0.409143 -0.359142
-0.509156 -0.409143 -0.334142
-0.509156 -0.384143 -0.359142
-0.509156 -0.384143 -0.334142
-0.509156 -0.409143 -0.309142
-0.509156 -0.409143 -0.284142
-0.509156 -0.384143 -0.309142
-0.509156 -0.384143 -0.284142
-0.509156 -0.359143 -0.359142
-0.509156 -0.359143 -0.334142
-0.509156 -0.334143 -0.359142
-0.509156 -0.334143 -0.334142
-0.509156 -0.359143 -0.309142
-0.509156 -0.359143 -0.284142
-0.509156 -0.334143 -0.309142
-0.509156 -0.334143 -0.284142
-0.509156 -0.509143 -0.259142
-0.509156 -0.509143 -0.234142
-0.509156 -0.484143 -0.259142
-0.509156 -0.484143 -0.234142
-0.484155 -0.509143 -0.259142
-0.484155 -0.509143 -0.234142
-0.509156 -0.509143 -0.209142
-0.509156 -0.509143 -0.184142
-0.509156 -0.484143 -0.209142
-0.509156 -0.484143 -0.184142
-0.484155 -0.509143 -0.209142
-0.484155 -0.509143 -0.184142
-0.509156 -0.459143 -0.259142
-0.509156 -0.459143 -0.234142
-0.509156 -0.434143 -0.259142
-0.509156 -0.434143 -0.234142
-0.509156 -0.459143 -0.209142
-0.509156 -0.459143 -0.184142
-0.509156 -0.434143 -0.209142
-0.509156 -0.434143 -0.184142
-0.509156 -0.509143 -0.159142
-0.509156 -0.509143 -0.134142
-0.509156 -0.484143 -0.159142
-0.509156 -0.484143 -0.134142
-0.484155 -0.509143 -0.159142
-0.484155 -0.509143 -0.134142
-0.509156 -0.509143 -0.109142
-0.509156 -0.509143 -0.084142
-0.509156 -0.484143 -0.109142
-0.509156 -0.484143 -0.084142
-0.484155 -0.509143 -0.109142
-0.484155 -0.509143 -0.084142
-0.509156 -0.459143 -0.159142
-0.509156 -0.459143 -0.134142
-0.509156 -0.434143 -0.159142
-0.509156 -0.434143 -0.134142
-0.509156 -0.459143 -0.109142
-0.509156 -0.459143 -0.084142
-0.509156 -0.434143 -0.109142
-0.509156 -0.434143 -0.084142
-0.509156 -0.409143 -0.259142
-0.509156 -0.409143 -0.234142
-0.509156 -0.384143 -0.259142
-0.509156 -0.384143 -0.234142
-0.509156 -0.409143 -0.209142
-0.509156 -0.409143 -0.184142
-0.509156 -0.384143 -0.209142
-0.509156 -0.384143 -0.184142
-0.509156 -0.359143 -0.259142
-0.509156 -0.359143 -0.234142
-0.509156 -0.334143 -0.259142
-0.509156 -0.334143 -0.234142
-0.509156 -0.359143 -0.209142
-0.509156 -0.359143 -0.184142
-0.509156 -0.334143 -0.209142
-0.509156 -0.334143 -0.184142
-0.509156 -0.409143 -0.159142
-0.509156 -0.409143 -0.134142
-0.509156 -0.384143 -0.159142
-0.509156 -0.384143 -0.134142
-0.509156 -0.409143 -0.109142
-0.509156 -0.409143 -0.084142
-0.509156 -0.384143 -0.109142
-0.509156 -0.384143 -0.084142
-0.509156 -0.359143 -0.159142
-0.509156 -0.359143 -0.134142
-0.509156 -0.334143 -0.159142
-0.509156 -0.334143 -0.134142
-0.509156 -0.359143 -0.109142
-0.509156 -0.359143 -0.084142
-0.509156 -0.334143 -0.109142
-0.509156 -0.334143 -0.084142
-0.509156 -0.309143 -0.459142
-0.509156 -0.309143 -0.434142
-0.509156 -0.284143 -0.459142
-0.509156 -0.284143 -0.434142
-0.509156 -0.309143 -0.409142
-0.509156 -0.309143 -0.384142
-0.509156 -0.284143 -0.409142
-0.509156 -0.284143 -0.384142
-0.509156 -0.259143 -0.459142
-0.509156 -0.259143 -0.434142
-0.509156 -0.234143 -0.459142
-0.509156 -0.234143 -0.434142
-0.509156 -0.259143 -0.409142
-0.509156 -0.259143 -0.384142
-0.509156 -0.234143 -0.409142
-0.509156 -0.234143 -0.384142
-0.509156 -0.309143 -0.359142
-0.509156 -0.309143 -0.334142
-0.509156 -0.284143 -0.359142
-0.509156 -0.284143 -0.334142
-0.509156 -0.309143 -0.309142
-0.509156 -0.309143 -0.284142
-0.509156 -0.284143 -0.309142
-0.509156 -0.284143 -0.284142
-0.509156 -0.259143 -0.359142
-0.509156 -0.259143 -0.334142
-0.509156 -0.234143 -0.359142
-0.509156 -0.234143 -0.334142
-0.509156 -0.259143 -0.309142
-0.509156 -0.259143 -0.284142
-0.509156 -0.234143 -0.309142
-0.509156 -0.234143 -0.284142
-0.509156 -0.209143 -0.459142
-0.509156 -0.209143 -0.434142
-0.509156 -0.184143 -0.459142
-0.509156 -0.184143 -0.434142
-0.509156 -0.209143 -0.409142
-0.509156 -0.209143 -0.384142
-0.509156 -0.184143 -0.409142
-0.509156 -0.184143 -0.384142
-0.509156 -0.159143 -0.459142
-0.509156 -0.159143 -0.434142
-0.509156 -0.134143 -0.459142
-0.509156 -0.134143 -0.434142
-0.509156 -0.159143 -0.409142
-0.509156 -0.159143 -0.384142
-0.509156 -0.134143 -0.409142
-0.509156 -0.134143 -0.384142
-0.509156 -0.209143 -0.359142
-0.509156 -0.209143 -0.334142
-0.509156 -0.184143 -0.359142
-0.509156 -0.184143 -0.334142
-0.509156 -0.209143 -0.309142
-0.509156 -0.209143 -0.284142
-0.509156 -0.184143 -0.309142
-0.509156 -0.184143 -0.284142
-0.509156 -0.159143 -0.359142
-0.509156 -0.159143 -0.334142
-0.509156 -0.134143 -0.359142
-0.509156 -0.134143 -0.334142
-0.509156 -0.159143 -0.309142
-0.509156 -0.159143 -0.284142
-0.509156 -0.134143 -0.309142
-0.509156 -0.134143 -0.284142
-0.509156 -0.309143 -0.259142
-0.509156 -0.309143 -0.234142
-0.509156 -0.284143 -0.259142
-0.509156 -0.284143 -0.234142
-0.509156 -0.309143 -0.209142
-0.509156 -0.309143 -0.184142
-0.509156 -0.284143 -0.209142
-0.509156 -0.284143 -0.184142
-0.509156 -0.259143 -0.259142
-0.509156 -0.259143 -0.234142
-0.509156 -0.234143 -0.259142
-0.509156 -0.234143 -0.234142
-0.509156 -0.259143 -0.209142
-0.509156 -0.259143 -0.184142
-0.509156 -0.234143 -0.209142
-0.509156 -0.234143 -0.184142
-0.509156 -0.309143 -0.159142
-0.509156 -0.309143 -0.134142
-0.509156 -0.284143 -0.159142
-0.509156 -0.284143 -0.134142
-0.509156 -0.309143 -0.109142
-0.509156 -0.309143 -0.084142
-0.509156 -0.284143 -0.109142
-0.509156 -0.284143 -0.084142
-0.509156 -0.259143 -0.159142
-0.509156 -0.259143 -0.134142
-0.509156 -0.234143 -0.159142
-0.509156 -0.234143 -0.134142
-0.509156 -0.259143 -0.109142
-0.509156 -0.259143 -0.084142
-0.509156 -0.234143 -0.109142
-0.509156 -0.234143 -0.084142
-0.509156 -0.209143 -0.259142
-0.509156 -0.209143 -0.234142
-0.509156 -0.184143 -0.259142
-0.509156 -0.184143 -0.234142
-0.509156 -0.209143 -0.209142
-0.509156 -0.209143 -0.184142
-0.509156 -0.184143 -0.209142
-0.509156 -0.184143 -0.184142
-0.509156 -0.159143 -0.259142
-0.509156 -0.159143 -0.234142
-0.509156 -0.134143 -0.259142
-0.509156 -0.134143 -0.234142
-0.509156 -0.159143 -0.209142
-0.509156 -0.159143 -0.184142
-0.509156 -0.134143 -0.209142
-0.509156 -0.134143 -0.184142
-0.509156 -0.209143 -0.159142
-0.509156 -0.209143 -0.134142
-0.509156 -0.184143 -0.159142
-0.509156 -0.184143 -0.134142
-0.509156 -0.209143 -0.109142
-0.509156 -0.209143 -0.084142
-0.509156 -0.184143 -0.109142
-0.509156 -0.184143 -0.084142
-0.509156 -0.159143 -0.159142
-0.509156 -0.159143 -0.134142
-0.509156 -0.134143 -0.159142
-0.509156 -0.134143 -0.134142
-0.509156 -0.159143 -0.109142
-0.509156 -0.159143 -0.084142
-0.509156 -0.134143 -0.109142
-0.509156 -0.134143 -0.084142
-0.509156 -0.509143 -0.059142
-0.509156 -0.509143 -0.034142
-0.509156 -0.484143 -0.059142
-0.509156 -0.484143 -0.034142
-0.484155 -0.509143 -0.059142
-0.484155 -0.509143 -0.034142
-0.509156 -0.509143 -0.009142
-0.509156 -0.509143 0.015858
-0.509156 -0.484143 -0.009142
-0.509156 -0.484143 0.015858
-0.484155 -0.509143 -0.009142
-0.484155 -0.509143 0.015858
-0.509156 -0.459143 -0.059142
-0.509156 -0.459143 -0.034142
-0.509156 -0.434143 -0.059142
-0.509156 -0.434143 -0.034142
-0.509156 -0.459143 -0.009142
-0.509156 -0.459143 0.015858
-0.509156 -0.434143 -0.009142
-0.509156 -0.434143 0.015858
-0.509156 -0.509143 0.040858
-0.509156 -0.509143 0.065858
-0.509156 -0.484143 0.040858
-0.509156 -0.484143 0.065858
-0.484155 -0.509143 0.040858
-0.484155 -0.509143 0.065858
-0.509156 -0.509143 0.090858
-0.509156 -0.509143 0.115858
-0.509156 -0.484143 0.090858
-0.509156 -0.484143 0.115858
-0.484155 -0.509143 0.090858
-0.484155 -0.509143 0.115858
-0.509156 -0.459143 0.040858
-0.509156 -0.459143 0.065858
-0.509156 -0.434143 0.040858
-0.509156 -0.434143 0.065858
-0.509156 -0.459143 0.090858
-0.509156 -0.459143 0.115858
-0.509156 -0.434143 0.090858
-0.509156 -0.434143 0.115858
-0.509156 -0.409143 -0.059142
-0.509156 -0.409143 -0.034142
-0.509156 -0.384143 -0.059142
-0.509156 -0.384143 -0.034142
-0.509156 -0.409143 -0.009142
-0.509156 -0.409143 0.015858
-0.509156 -0.384143 -0.009142
-0.509156 -0.384143 0.015858
-0.509156 -0.359143 -0.059142
-0.509156 -0.359143 -0.034142
-0.509156 -0.334143 -0.059142
-0.509156 -0.334143 -0.034142
-0.509156 -0.359143 -0.009142
-0.509156 -0.359143 0.015858
-0.509156 -0.334143 -0.009142
-0.509156 -0.334143 0.015858
-0.509156 -0.409143 0.040858
-0.509156 -0.409143 0.065858
-0.509156 -0.384143 0.040858
-0.509156 -0.384143 0.065858
-0.509156 -0.409143 0.090858
-0.509156 -0.409143 0.115858
-0.509156 -0.384143 0.090858
-0.509156 -0.384143 0.115858
-0.509156 -0.359143 0.040858
-0.509156 -0.359143 0.065858
-0.509156 -0.334143 0.040858
-0.509156 -0.334143 0.065858
-0.509156 -0.359143 0.090858
-0.509156 -0.359143 0.115858
-0.509156 -0.334143 0.090858
-0.509156 -0.334143 0.115858
-0.509156 -0.509143 0.140858
-0.509156 -0.509143 0.165858
-0.509156 -0.484143 0.140858
-0.509156 -0.484143 0.165858
-0.484155 -0.509143 0.140858
-0.484155 -0.509143 0.165858
-0.509156 -0.509143 0.190858
-0.509156 -0.509143 0.215858
-0.509156 -0.484143 0.190858
-0.509156 -0.484143 0.215858
-0.484155 -0.509143 0.190858
-0.484155 -0.509143 0.215858
-0.509156 -0.459143 0.140858
-0.509156 -0.459143 0.165858
-0.509156 -0.434143 0.140858
-0.509156 -0.434143 0.165858
-0.509156 -0.459143 0.190858
-0.509156 -0.459143 0.215858
-0.509156 -0.434143 0.190858
-0.509156 -0.434143 0.215858
-0.509156 -0.509143 0.240858
-0.509156 -0.509143 0.265858
-0.509156 -0.484143 0.240858
-0.509156 -0.484143 0.265858
-0.484155 -0.509143 0.240858
-0.484155 -0.509143 0.265858
-0.509156 -0.509143 0.290858
-0.509156 -0.509143 0.315858
-0.509156 -0.484143 0.290858
-0.509156 -0.484143 0.315858
-0.484155 -0.509143 0.290858
-0.484155 -0.509143 0.315858
-0.509156 -0.459143 0.240858
-0.509156 -0.459143 0.265858
-0.509156 -0.434143 0.240858
-0.509156 -0.434143 0.265858
-0.509156 -0.459143 0.290858
-0.509156 -0.459143 0.315858
-0.509156 -0.434143 0.290858
-0.509156 -0.434143 0.315858
-0.509156 -0.409143 0.140858
-0.509156 -0.409143 0.165858
-0.509156 -0.384143 0.140858
-0.509156 -0.384143 0.165858
-0.509156 -0.409143 0.190858
-0.509156 -0.409143 0.215858
-0.509156 -0.384143 0.190858
-0.509156 -0.384143 0.215858
-0.509156 -0.359143 0.140858
-0.509156 -0.359143 0.165858
-0.509156 -0.334143 0.140858
-0.509156 -0.334143 0.165858
-0.509156 -0.359143 0.190858
-0.509156 -0.359143 0.215858
-0.509156 -0.334143 0.190858
-0.509156 -0.334143 0.215858
-0.509156 -0.409143 0.240858
-0.509156 -0.409143 0.265858
-0.509156 -0.384143 0.240858
-0.509156 -0.384143 0.265858
-0.509156 -0.409143 0.290858
-0.509156 -0.409143 0.315858
-0.509156 -0.384143 0.290858
-0.509156 -0.384143 0.315858
-0.509156 -0.359143 0.240858
-0.509156 -0.359143 0.265858
-0.509156 -0.334143 0.240858
-0.509156 -0.334143 0.265858
-0.509156 -0.359143 0.290858
-0.509156 -0.359143 0.315858
-0.509156 -0.334143 0.290858
-0.509156 -0.334143 0.315858
-0.509156 -0.309143 -0.059142
-0.509156 -0.309143 -0.034142
-0.509156 -0.284143 -0.059142
-0.509156 -0.284143 -0.034142
-0.509156 -0.309143 -0.009142
-0.509156 -0.309143 0.015858
-0.509156 -0.284143 -0.009142
-0.509156 -0.284143 0.015858
-0.509156 -0.259143 -0.059142
-0.509156 -0.259143 -0.034142
-0.509156 -0.234143 -0.059142
-0.509156 -0.234143 -0.034142
-0.509156 -0.259143 -0.009142
-0.509156 -0.259143 0.015858
-0.509156 -0.234143 -0.009142
-0.509156 -0.234143 0.015858
-0.509156 -0.309143 0.040858
-0.509156 -0.309143 0.065858
-0.509156 -0.284143 0.040858
-0.509156 -0.284143 0.065858
-0.509156 -0.309143 0.090858
-0.509156 -0.309143 0.115858
-0.509156 -0.284143 0.090858
-0.509156 -0.284143 0.115858
-0.509156 -0.259143 0.040858
-0.509156 -0.259143 0.065858
-0.509156 -0.234143 0.040858
-0.509156 -0.234143 0.065858
-0.509156 -0.259143 0.090858
-0.509156 -0.259143 0.115858
-0.509156 -0.234143 0.090858
-0.509156 -0.234143 0.115858
-0.509156 -0.209143 -0.059142
-0.509156 -0.209143 -0.034142
-0.509156 -0.184143 -0.059142
-0.509156 -0.184143 -0.034142
-0.509156 -0.209143 -0.009142
-0.509156 -0.209143 0.015858
-0.509156 -0.184143 -0.009142
-0.509156 -0.184143 0.015858
-0.509156 -0.159143 -0.059142
-0.509156 -0.159143 -0.034142
-0.509156 -0.134143 -0.059142
-0.509156 -0.134143 -0.034142
-0.509156 -0.159143 -0.009142
-0.509156 -0.159143 0.015858
-0.509156 -0.134143 -0.009142
-0.509156 -0.134143 0.015858
-0.509156 -0.209143 0.040858
-0.509156 -0.209143 0.065858
-0.509156 -0.184143 0.040858
-0.509156 -0.184143 0.065858
-0.509156 -0.209143 0.090858
-0.509156 -0.209143 0.115858
-0.509156 -0.184143 0.090858
-0.509156 -0.184143 0.115858
-0.509156 -0.159143 0.040858
-0.509156 -0.159143 0.065858
-0.509156 -0.134143 0.040858
-0.509156 -0.134143 0.065858
-0.509156 -0.159143 0.090858
-0.509156 -0.159143 0.115858
-0.509156 -0.134143 0.090858
-0.509156 -0.134143 0.115858
-0.509156 -0.309143 0.140858
-0.509156 -0.309143 0.165858
-0.509156 -0.284143 0.140858
-0.509156 -0.284143 0.165858
-0.509156 -0.309143 0.190858
-0.509156 -0.309143 0.215858
-0.509156 -0.284143 0.190858
-0.509156 -0.284143 0.215858
-0.509156 -0.259143 0.140858
-0.509156 -0.259143 0.165858
-0.509156 -0.234143 0.140858
-0.509156 -0.234143 0.165858
-0.509156 -0.259143 0.190858
-0.509156 -0.259143 0.215858
-0.509156 -0.234143 0.190858
-0.509156 -0.234143 0.215858
-0.509156 -0.309143 0.240858
-0.509156 -0.309143 0.265858
-0.509156 -0.284143 0.240858
-0.509156 -0.284143 0.265858
-0.509156 -0.309143 0.290858
-0.509156 -0.309143 0.315858
-0.509156 -0.284143 0.290858
-0.509156 -0.284143 0.315858
-0.509156 -0.259143 0.240858
-0.509156 -0.259143 0.265858
-0.509156 -0.234143 0.240858
-0.509156 -0.234143 0.265858
-0.509156 -0.259143 0.290858
-0.509156 -0.259143 0.315858
-0.509156 -0.234143 0.290858
-0.509156 -0.234143 0.315858
-0.509156 -0.209143 0.140858
-0.509156 -0.209143 0.165858
-0.509156 -0.184143 0.140858
-0.509156 -0.184143 0.165858
-0.509156 -0.209143 0.190858
-0.509156 -0.209143 0.215858
-0.509156 -0.184143 0.190858
-0.509156 -0.184143 0.215858
-0.509156 -0.159143 0.140858
-0.509156 -0.159143 0.165858
-0.509156 -0.134143 0.140858
-0.509156 -0.134143 0.165858
-0.509156 -0.159143 0.190858
-0.509156 -0.159143 0.215858
-0.509156 -0.134143 0.190858
-0.509156 -0.134143 0.215858
-0.509156 -0.209143 0.240858
-0.509156 -0.209143 0.265858
-0.509156 -0.184143 0.240858
-0.509156 -0.184143 0.265858
-0.509156 -0.209143 0.290858
-0.509156 -0.209143 0.315858
-0.509156 -0.184143 0.290858
-0.509156 -0.184143 0.315858
-0.509156 -0.159143 0.240858
-0.509156 -0.159143 0.265858
-0.509156 -0.134143 0.240858
-0.509156 -0.134143 0.265858
-0.509156 -0.159143 0.290858
-0.509156 -0.159143 0.315858
-0.509156 -0.134143 0.290858
-0.509156 -0.134143 0.315858
-0.509156 -0.109143 -0.459142
-0.509156 -0.109143 -0.434142
-0.509156 -0.084143 -0.459142
-0.509156 -0.084143 -0.434142
-0.509156 -0.109143 -0.409142
-0.509156 -0.109143 -0.384142
-0.509156 -0.084143 -0.409142
-0.509156 -0.084143 -0.384142
-0.509156 -0.059143 -0.459142
-0.509156 -0.059143 -0.434142
-0.509156 -0.034143 -0.459142
-0.509156 -0.034143 -0.434142
-0.509156 -0.059143 -0.409142
-0.509156 -0.059143 -0.384142
-0.509156 -0.034143 -0.409142
-0.509156 -0.034143 -0.384142
-0.509156 -0.109143 -0.359142
-0.509156 -0.109143 -0.334142
-0.509156 -0.084143 -0.359142
-0.509156 -0.084143 -0.334142
-0.509156 -0.109143 -0.309142
-0.509156 -0.109143 -0.284142
-0.509156 -0.084143 -0.309142
-0.509156 -0.084143 -0.284142
-0.509156 -0.059143 -0.359142
-0.509156 -0.059143 -0.334142
-0.509156 -0.034143 -0.359142
-0.509156 -0.034143 -0.334142
-0.509156 -0.059143 -0.309142
-0.509156 -0.059143 -0.284142
-0.509156 -0.034143 -0.309142
-0.509156 -0.034143 -0.284142
-0.509156 -0.009143 -0.459142
-0.509156 -0.009143 -0.434142
-0.509156 0.015857 -0.459142
-0.509156 0.015857 -0.434142
-0.509156 -0.009143 -0.409142
-0.509156 -0.009143 -0.384142
-0.509156 0.015857 -0.409142
-0.509156 0.015857 -0.384142
-0.509156 0.040857 -0.459142
-0.509156 0.040857 -0.434142
-0.509156 0.065857 -0.459142
-0.509156 0.065857 -0.434142
-0.509156 0.040857 -0.409142
-0.509156 0.040857 -0.384142
-0.509156 0.065857 -0.409142
-0.509156 0.065857 -0.384142
-0.509156 -0.009143 -0.359142
-0.509156 -0.009143 -0.334142
-0.509156 0.015857 -0.359142
-0.509156 0.015857 -0.334142
-0.509156 -0.009143 -0.309142
-0.509156 -0.009143 -0.284142
-0.509156 0.015857 -0.309142
-0.509156 0.015857 -0.284142
-0.509156 0.040857 -0.359142
-0.509156 0.040857 -0.334142
-0.509156 0.065857 -0.359142
-0.509156 0.065857 -0.334142
-0.509156 0.040857 -0.309142
-0.509156 0.040857 -0.284142
-0.509156 0.065857 -0.309142
-0.509156 0.065857 -0.284142
-0.509156 -0.109143 -0.259142
-0.509156 -0.109143 -0.234142
-0.509156 -0.084143 -0.259142
-0.509156 -0.084143 -0.234142
-0.509156 -0.109143 -0.209142
-0.509156 -0.109143 -0.184142
-0.509156 -0.084143 -0.209142
-0.509156 -0.084143 -0.184142
-0.509156 -0.059143 -0.259142
-0.509156 -0.059143 -0.234142
-0.509156 -0.034143 -0.259142
-0.509156 -0.034143 -0.234142
-0.509156 -0.059143 -0.209142
-0.509156 -0.059143 -0.184142
-0.509156 -0.034143 -0.209142
-0.509156 -0.034143 -0.184142
-0.509156 -0.109143 -0.159142
-0.509156 -0.109143 -0.134142
-0.509156 -0.084143 -0.159142
-0.509156 -0.084143 -0.134142
-0.509156 -0.109143 -0.109142
-0.509156 -0.109143 -0.084142
-0.509156 -0.084143 -0.109142
-0.509156 -0.084143 -0.084142
-0.509156 -0.059143 -0.159142
-0.509156 -0.059143 -0.134142
-0.509156 -0.034143 -0.159142
-0.509156 -0.034143 -0.134142
-0.509156 -0.059143 -0.109142
-0.509156 -0.059143 -0.084142
-0.509156 -0.034143 -0.109142
-0.509156 -0.034143 -0.084142
-0.509156 -0.009143 -0.259142
-0.509156 -0.009143 -0.234142
-0.509156 0.015857 -0.259142
-0.509156 0.015857 -0.234142
-0.509156 -0.009143 -0.209142
-0.509156 -0.009143 -0.184142
-0.509156 0.015857 -0.209142
-0.509156 0.015857 -0.184142
-0.509156 0.040857 -0.259142
-0.509156 0.040857 -0.234142
-0.509156 0.065857 -0.259142
-0.509156 0.065857 -0.234142
-0.509156 0.040857 -0.209142
-0.509156 0.040857 -0.184142
-0.509156 0.065857 -0.209142
-0.509156 0.065857 -0.184142
-0.509156 -0.009143 -0.159142
-0.509156 -0.009143 -0.134142
-0.509156 0.015857 -0.159142
-0.509156 0.015857 -0.134142
-0.509156 -0.009143 -0.109142
-0.509156 -0.009143 -0.084142
-0.509156 0.015857 -0.109142
-0.509156 0.015857 -0.084142
-0.509156 0.040857 -0.159142
-0.509156 0.040857 -0.134142
-0.509156 0.065857 -0.159142
-0.509156 0.065857 -0.134142
-0.509156 0.040857 -0.109142
-0.509156 0.040857 -0.084142
-0.509156 0.065857 -0.109142
-0.509156 0.065857 -0.084142
-0.509156 0.090857 -0.459142
-0.509156 0.090857 -0.434142
-0.509156 0.115857 -0.459142
-0.509156 0.115857 -0.434142
-0.509156 0.090857 -0.409142
-0.509156 0.090857 -0.384142
-0.509156 0.115857 -0.409142
-0.509156 0.115857 -0.384142
-0.509156 0.140857 -0.459142
-0.509156 0.140857 -0.434142
-0.509156 0.165857 -0.459142
-0.509156 0.165857 -0.434142
-0.509156 0.140857 -0.409142
-0.509156 0.140857 -0.384142
-0.509156 0.165857 -0.409142
-0.509156 0.165857 -0.384142
-0.509156 0.090857 -0.359142
-0.509156 0.090857 -0.334142
-0.509156 0.115857 -0.359142
-0.509156 0.115857 -0.334142
-0.509156 0.090857 -0.309142
-0.509156 0.090857 -0.284142
-0.509156 0.115857 -0.309142
-0.509156 0.115857 -0.284142
-0.509156 0.140857 -0.359142
-0.509156 0.140857 -0.334142
-0.509156 0.165857 -0.359142
-0.509156 0.165857 -0.334142
-0.509156 0.140857 -0.309142
-0.509156 0.140857 -0.284142
-0.509156 0.165857 -0.309142
-0.509156 0.165857 -0.284142
-0.509156 0.190857 -0.459142
-0.509156 0.190857 -0.434142
-0.509156 0.215857 -0.459142
-0.509156 0.215857 -0.434142
-0.509156 0.190857 -0.409142
-0.509156 0.190857 -0.384142
-0.509156 0.215857 -0.409142
-0.509156 0.215857 -0.384142
-0.509156 0.240857 -0.459142
-0.509156 0.240857 -0.434142
-0.509156 0.265857 -0.459142
-0.509156 0.265857 -0.434142
-0.509156 0.240857 -0.409142
-0.509156 0.240857 -0.384142
-0.509156 0.265857 -0.409142
-0.509156 0.265857 -0.384142
-0.509156 0.190857 -0.359142
-0.509156 0.190857 -0.334142
-0.509156 0.215857 -0.359142
-0.509156 0.215857 -0.334142
-0.509156 0.190857 -0.309142
-0.509156 0.190857 -0.284142
-0.509156 0.215857 -0.309142
-0.509156 0.215857 -0.284142
-0.509156 0.240857 -0.359142
-0.509156 0.240857 -0.334142
-0.509156 0.265857 -0.359142
-0.509156 0.265857 -0.334142
-0.509156 0.240857 -0.309142
-0.509156 0.240857 -0.284142
-0.509156 0.265857 -0.309142
-0.509156 0.265857 -0.284142
-0.509156 0.090857 -0.259142
-0.509156 0.090857 -0.234142
-0.509156 0.115857 -0.259142
-0.509156 0.115857 -0.234142
-0.509156 0.090857 -0.209142
-0.509156 0.090857 -0.184142
-0.509156 0.115857 -0.209142
-0.509156 0.115857 -0.184142
-0.509156 0.140857 -0.259142
-0.509156 0.140857 -0.234142
-0.509156 0.165857 -0.259142
-0.509156 0.165857 -0.234142
-0.509156 0.140857 -0.209142
-0.509156 0.140857 -0.184142
-0.509156 0.165857 -0.209142
-0.509156 0.165857 -0.184142
-0.509156 0.090857 -0.159142
-0.509156 0.090857 -0.134142
-0.509156 0.115857 -0.159142
-0.509156 0.115857 -0.134142
-0.509156 0.090857 -0.109142
-0.509156 0.090857 -0.084142
-0.509156 0.115857 -0.109142
-0.509156 0.115857 -0.084142
-0.509156 0.140857 -0.159142
-0.509156 0.140857 -0.134142
-0.509156 0.165857 -0.159142
-0.509156 0.165857 -0.134142
-0.509156 0.140857 -0.109142
-0.509156 0.140857 -0.084142
-0.509156 0.165857 -0.109142
-0.509156 0.165857 -0.084142
-0.509156 0.190857 -0.259142
-0.509156 0.190857 -0.234142
-0.509156 0.215857 -0.259142
-0.509156 0.215857 -0.234142
-0.509156 0.190857 -0.209142
-0.509156 0.190857 -0.184142
-0.509156 0.215857 -0.209142
-0.509156 0.215857 -0.184142
-0.509156 0.240857 -0.259142
-0.509156 0.240857 -0.234142
-0.509156 0.265857 -0.259142
-0.509156 0.265857 -0.234142
-0.509156 0.240857 -0.209142
-0.509156 0.240857 -0.184142
-0.509156 0.265857 -0.209142
-0.509156 0.265857 -0.184142
-0.509156 0.190857 -0.159142
-0.509156 0.190857 -0.134142
-0.509156 0.215857 -0.159142
-0.509156 0.215857 -0.134142
-0.509156 0.190857 -0.109142
-0.509156 0.190857 -0.084142
-0.509156 0.215857 -0.109142
-0.509156 0.215857 -0.084142
-0.509156 0.240857 -0.159142
-0.509156 0.240857 -0.134142
-0.509156 0.265857 -0.159142
-0.509156 0.265857 -0.134142
-0.509156 0.240857 -0.109142
-0.509156 0.240857 -0.084142
-0.509156 0.265857 -0.109142
-0.509156 0.265857 -0.084142
-0.509156 -0.109143 -0.059142
-0.509156 -0.109143 -0.034142
-0.509156 -0.084143 -0.059142
-0.509156 -0.084143 -0.034142
-0.509156 -0.109143 -0.009142
-0.509156 -0.109143 0.015858
-0.509156 -0.084143 -0.009142
-0.509156 -0.084143 0.015858
-0.509156 -0.059143 -0.059142
-0.509156 -0.059143 -0.034142
-0.509156 -0.034143 -0.059142
-0.509156 -0.034143 -0.034142
-0.509156 -0.059143 -0.009142
-0.509156 -0.059143 0.015858
-0.509156 -0.034143 -0.009142
-0.509156 -0.034143 0.015858
-0.509156 -0.109143 0.040858
-0.509156 -0.109143 0.065858
-0.509156 -0.084143 0.040858
-0.509156 -0.084143 0.065858
-0.509156 -0.109143 0.090858
-0.509156 -0.109143 0.115858
-0.509156 -0.084143 0.090858
-0.509156 -0.084143 0.115858
-0.509156 -0.059143 0.040858
-0.509156 -0.059143 0.065858
-0.509156 -0.034143 0.040858
-0.509156 -0.034143 0.065858
-0.509156 -0.059143 0.090858
-0.509156 -0.059143 0.115858
-0.509156 -0.034143 0.090858
-0.509156 -0.034143 0.115858
-0.509156 -0.009143 -0.059142
-0.509156 -0.009143 -0.034142
-0.509156 0.015857 -0.059142
-0.509156 0.015857 -0.034142
-0.509156 -0.009143 -0.009142
-0.509156 -0.009143 0.015858
-0.509156 0.015857 -0.009142
-0.509156 0.015857 0.015858
-0.509156 0.040857 -0.059142
-0.509156 0.040857 -0.034142
-0.509156 0.065857 -0.059142
-0.509156 0.065857 -0.034142
-0.509156 0.040857 -0.009142
-0.509156 0.040857 0.015858
-0.509156 0.065857 -0.009142
-0.509156 0.065857 0.015858
-0.509156 -0.009143 0.040858
-0.509156 -0.009143 0.065858
-0.509156 0.015857 0.040858
-0.509156 0.015857 0.065858
-0.509156 -0.009143 0.090858
-0.509156 -0.009143 0.115858
-0.509156 0.015857 0.090858
-0.509156 0.015857 0.115858
-0.509156 0.040857 0.040858
-0.509156 0.040857 0.065858
-0.509156 0.065857 0.040858
-0.509156 0.065857 0.065858
-0.509156 0.040857 0.090858
-0.509156 0.040857 0.115858
-0.509156 0.065857 0.090858
-0.509156 0.065857 0.115858
-0.509156 -0.109143 0.140858
-0.509156 -0.109143 0.165858
-0.509156 -0.084143 0.140858
-0.509156 -0.084143 0.165858
-0.509156 -0.109143 0.190858
-0.509156 -0.109143 0.215858
-0.509156 -0.084143 0.190858
-0.509156 -0.084143 0.215858
-0.509156 -0.059143 0.140858
-0.509156 -0.059143 0.165858
-0.509156 -0.034143 0.140858
-0.509156 -0.034143 0.165858
-0.509156 -0.059143 0.190858
-0.509156 -0.059143 0.215858
-0.509156 -0.034143 0.190858
-0.509156 -0.034143 0.215858
-0.509156 -0.109143 0.240858
-0.509156 -0.109143 0.265858
-0.509156 -0.084143 0.240858
-0.509156 -0.084143 0.265858
-0.509156 -0.109143 0.290858
-0.509156 -0.109143 0.315858
-0.509156 -0.084143 0.290858
-0.509156 -0.084143 0.315858
-0.509156 -0.059143 0.240858
-0.509156 -0.059143 0.265858
-0.509156 -0.034143 0.240858
-0.509156 -0.034143 0.265858
-0.509156 -0.059143 0.290858
-0.509156 -0.059143 0.315858
-0.509156 -0.034143 0.290858
-0.509156 -0.034143 0.315858
-0.509156 -0.009143 0.140858
-0.509156 -0.009143 0.165858
-0.509156 0.015857 0.140858
-0.509156 0.015857 0.165858
-0.509156 -0.009143 0.190858
-0.509156 -0.009143 0.215858
-0.509156 0.015857 0.190858
-0.509156 0.015857 0.215858
-0.509156 0.040857 0.140858
-0.509156 0.040857 0.165858
-0.509156 0.065857 0.140858
-0.509156 0.065857 0.165858
-0.509156 0.040857 0.190858
-0.509156 0.040857 0.215858
-0.509156 0.065857 0.190858
-0.509156 0.065857 0.215858
-0.509156 -0.009143 0.240858
-0.509156 -0.009143 0.265858
-0.509156 0.015857 0.240858
-0.509156 0.015857 0.265858
-0.509156 -0.009143 0.290858
-0.509156 -0.009143 0.315858
-0.509156 0.015857 0.290858
-0.509156 0.015857 0.315858
-0.509156 0.040857 0.240858
-0.509156 0.040857 0.265858
-0.509156 0.065857 0.240858
-0.509156 0.065857 0.265858
-0.509156 0.040857 0.290858
-0.509156 0.040857 0.315858
-0.509156 0.065857 0.290858
-0.509156 0.065857 0.315858
-0.509156 0.090857 -0.059142
-0.509156 0.090857 -0.034142
-0.509156 0.115857 -0.059142
-0.509156 0.115857 -0.034142
-0.509156 0.090857 -0.009142
-0.509156 0.090857 0.015858
-0.509156 0.115857 -0.009142
-0.509156 0.115857 0.015858
-0.509156 0.140857 -0.059142
-0.509156 0.140857 -0.034142
-0.509156 0.165857 -0.059142
-0.509156 0.165857 -0.034142
-0.509156 0.140857 -0.009142
-0.509156 0.140857 0.015858
-0.509156 0.165857 -0.009142
-0.509156 0.165857 0.015858
-0.509156 0.090857 0.040858
-0.509156 0.090857 0.065858
-0.509156 0.115857 0.040858
-0.509156 0.115857 0.065858
-0.509156 0.090857 0.090858
-0.509156 0.090857 0.115858
-0.509156 0.115857 0.090858
-0.509156 0.115857 0.115858
-0.509156 0.140857 0.040858
-0.509156 0.140857 0.065858
-0.509156 0.165857 0.040858
-0.509156 0.165857 0.065858
-0.509156 0.140857 0.090858
-0.509156 0.140857 0.115858
-0.509156 0.165857 0.090858
-0.509156 0.165857 0.115858
-0.509156 0.190857 -0.059142
-0.509156 0.190857 -0.034142
-0.509156 0.215857 -0.059142
-0.509156 0.215857 -0.034142
-0.509156 0.190857 -0.009142
-0.509156 0.190857 0.015858
-0.509156 0.215857 -0.009142
-0.509156 0.215857 0.015858
-0.509156 0.240857 -0.059142
-0.509156 0.240857 -0.034142
-0.509156 0.265857 -0.059142
-0.509156 0.265857 -0.034142
-0.509156 0.240857 -0.009142
-0.509156 0.240857 0.015858
-0.509156 0.265857 -0.009142
-0.509156 0.265857 0.015858
-0.509156 0.190857 0.040858
-0.509156 0.190857 0.065858
-0.509156 0.215857 0.040858
-0.509156 0.215857 0.065858
-0.509156 0.190857 0.090858
-0.509156 0.190857 0.115858
-0.509156 0.215857 0.090858
-0.509156 0.215857 0.115858
-0.509156 0.240857 0.040858
-0.509156 0.240857 0.065858
-0.509156 0.265857 0.040858
-0.509156 0.265857 0.065858
-0.509156 0.240857 0.090858
-0.509156 0.240857 0.115858
-0.509156 0.265857 0.090858
-0.509156 0.265857 0.115858
-0.509156 0.090857 0.140858
-0.509156 0.090857 0.165858
-0.509156 0.115857 0.140858
-0.509156 0.115857 0.165858
-0.509156 0.090857 0.190858
-0.509156 0.090857 0.215858
-0.509156 0.115857 0.190858
-0.509156 0.115857 0.215858
-0.509156 0.140857 0.140858
-0.509156 0.140857 0.165858
-0.509156 0.165857 0.140858
-0.509156 0.165857 0.165858
-0.509156 0.140857 0.190858
-0.509156 0.140857 0.215858
-0.509156 0.165857 0.190858
-0.509156 0.165857 0.215858
-0.509156 0.090857 0.240858
-0.509156 0.090857 0.265858
-0.509156 0.115857 0.240858
-0.509156 0.115857 0.265858
-0.509156 0.090857 0.290858
-0.509156 0.090857 0.315858
-0.509156 0.115857 0.290858
-0.509156 0.115857 0.315858
-0.509156 0.140857 0.240858
-0.509156 0.140857 0.265858
-0.509156 0.165857 0.240858
-0.509156 0.165857 0.265858
-0.509156 0.140857 0.290858
-0.509156 0.140857 0.315858
-0.509156 0.165857 0.290858
-0.509156 0.165857 0.315858
-0.509156 0.190857 0.140858
-0.509156 0.190857 0.165858
-0.509156 0.215857 0.140858
-0.509156 0.215857 0.165858
-0.509156 0.190857 0.190858
-0.509156 0.190857 0.215858
-0.509156 0.215857 0.190858
-0.509156 0.215857 0.215858
-0.509156 0.240857 0.140858
-0.509156 0.240857 0.165858
-0.509156 0.265857 0.140858
-0.509156 0.265857 0.165858
-0.509156 0.240857 0.190858
-0.509156 0.240857 0.215858
-0.509156 0.265857 0.190858
-0.509156 0.265857 0.215858
-0.509156 0.190857 0.240858
-0.509156 0.190857 0.265858
-0.509156 0.215857 0.240858
-0.509156 0.215857 0.265858
-0.509156 0.190857 0.290858
-0.509156 0.190857 0.315858
-0.509156 0.215857 0.290858
-0.509156 0.215857 0.315858
-0.509156 0.240857 0.240858
-0.509156 0.240857 0.265858
-0.509156 0.265857 0.240858
-0.509156 0.265857 0.265858
-0.509156 0.240857 0.290858
-0.509156 0.240857 0.315858
-0.509156 0.265857 0.290858
-0.509156 0.265857 0.315858
-0.509156 -0.509143 0.340858
-0.509156 -0.509143 0.365858
-0.509156 -0.484143 0.340858
-0.509156 -0.484143 0.365858
-0.484155 -0.509143 0.340858
-0.484155 -0.509143 0.365858
-0.509156 -0.509143 0.390858
-0.509156 -0.509143 0.415858
-0.509156 -0.484143 0.390858
-0.509156 -0.484143 0.415858
-0.484155 -0.509143 0.390858
-0.484155 -0.509143 0.415858
-0.509156 -0.459143 0.340858
-0.509156 -0.459143 0.365858
-0.509156 -0.434143 0.340858
-0.509156 -0.434143 0.365858
-0.509156 -0.459143 0.390858
-0.509156 -0.459143 0.415858
-0.509156 -0.434143 0.390858
-0.509156 -0.434143 0.415858
-0.509156 -0.509143 0.440858
-0.509156 -0.509143 0.465858
-0.509156 -0.484143 0.440858
-0.509156 -0.484143 0.465858
-0.484155 -0.509143 0.440858
-0.484155 -0.509143 0.465858
-0.509156 -0.509143 0.490858
-0.509156 -0.484143 0.490858
-0.484155 -0.509143 0.490858
-0.484155 -0.484143 0.490858
-0.509156 -0.459143 0.440858
-0.509156 -0.459143 0.465858
-0.509156 -0.434143 0.440858
-0.509156 -0.434143 0.465858
-0.509156 -0.459143 0.490858
-0.509156 -0.434143 0.490858
-0.484155 -0.459143 0.490858
-0.484155 -0.434143 0.490858
-0.509156 -0.409143 0.340858
-0.509156 -0.409143 0.365858
-0.509156 -0.384143 0.340858
-0.509156 -0.384143 0.365858
-0.509156 -0.409143 0.390858
-0.509156 -0.409143 0.415858
-0.509156 -0.384143 0.390858
-0.509156 -0.384143 0.415858
-0.509156 -0.359143 0.340858
-0.509156 -0.359143 0.365858
-0.509156 -0.334143 0.340858
-0.509156 -0.334143 0.365858
-0.509156 -0.359143 0.390858
-0.509156 -0.359143 0.415858
-0.509156 -0.334143 0.390858
-0.509156 -0.334143 0.415858
-0.509156 -0.409143 0.440858
-0.509156 -0.409143 0.465858
-0.509156 -0.384143 0.440858
-0.509156 -0.384143 0.465858
-0.509156 -0.409143 0.490858
-0.509156 -0.384143 0.490858
-0.484155 -0.409143 0.490858
-0.484155 -0.384143 0.490858
-0.509156 -0.359143 0.440858
-0.509156 -0.359143 0.465858
-0.509156 -0.334143 0.440858
-0.509156 -0.334143 0.465858
-0.509156 -0.359143 0.490858
-0.509156 -0.334143 0.490858
-0.484155 -0.359143 0.490858
-0.484155 -0.334143 0.490858
-0.509156 -0.309143 0.340858
-0.509156 -0.309143 0.365858
-0.509156 -0.284143 0.340858
-0.509156 -0.284143 0.365858
-0.509156 -0.309143 0.390858
-0.509156 -0.309143 0.415858
-0.509156 -0.284143 0.390858
-0.509156 -0.284143 0.415858
-0.509156 -0.259143 0.340858
-0.509156 -0.259143 0.365858
-0.509156 -0.234143 0.340858
-0.509156 -0.234143 0.365858
-0.509156 -0.259143 0.390858
-0.509156 -0.259143 0.415858
-0.509156 -0.234143 0.390858
-0.509156 -0.234143 0.415858
-0.509156 -0.309143 0.440858
-0.509156 -0.309143 0.465858
-0.509156 -0.284143 0.440858
-0.509156 -0.284143 0.465858
-0.509156 -0.309143 0.490858
-0.509156 -0.284143 0.490858
-0.484155 -0.309143 0.490858
-0.484155 -0.284143 0.490858
-0.509156 -0.259143 0.440858
-0.509156 -0.259143 0.465858
-0.509156 -0.234143 0.440858
-0.509156 -0.234143 0.465858
-0.509156 -0.259143 0.490858
-0.509156 -0.234143 0.490858
-0.484155 -0.259143 0.490858
-0.484155 -0.234143 0.490858
-0.509156 -0.209143 0.340858
-0.509156 -0.209143 0.365858
-0.509156 -0.184143 0.340858
-0.509156 -0.184143 0.365858
