ply
format ascii 1.0
element vertex 1657
property float x
property float y
property float z
end_header
-0.505156 0.361857 0.004858
-0.505156 0.361857 0.021858
-0.505156 0.344857 0.038858
-0.505156 0.344857 0.055858
-0.505156 0.361857 0.038858
-0.505156 0.361857 0.055858
-0.505156 0.378857 -0.063142
-0.505156 0.378857 -0.046142
-0.505156 0.395857 -0.063142
-0.505156 0.395857 -0.046142
-0.505156 0.378857 -0.029142
-0.505156 0.378857 -0.012142
-0.505156 0.395857 -0.029142
-0.505156 0.395857 -0.012142
-0.505156 0.412857 -0.063142
-0.505156 0.412857 -0.046142
-0.505156 0.429857 -0.063142
-0.505156 0.429857 -0.046142
-0.505156 0.412857 -0.029142
-0.505156 0.412857 -0.012142
-0.505156 0.429857 -0.029142
-0.505156 0.429857 -0.012142
-0.505156 0.378857 0.004858
-0.505156 0.378857 0.021858
-0.505156 0.395857 0.004858
-0.505156 0.395857 0.021858
-0.505156 0.378857 0.038858
-0.505156 0.378857 0.055858
-0.505156 0.395857 0.038858
-0.505156 0.395857 0.055858
-0.505156 0.412857 0.004858
-0.505156 0.412857 0.021858
-0.505156 0.429857 0.004858
-0.505156 0.429857 0.021858
-0.505156 0.412857 0.038858
-0.505156 0.412857 0.055858
-0.505156 0.429857 0.038858
-0.505156 0.429857 0.055858
-0.505156 0.446857 -0.199142
-0.505156 0.446857 -0.182142
-0.505156 0.463857 -0.199142
-0.505156 0.463857 -0.182142
-0.505156 0.446857 -0.165142
-0.505156 0.446857 -0.148142
-0.505156 0.463857 -0.165142
-0.505156 0.463857 -0.148142
-0.505156 0.480857 -0.199142
-0.505156 0.480857 -0.182142
-0.505156 0.497857 -0.199142
-0.505156 0.497857 -0.182142
-0.488155 0.497857 -0.199142
-0.488155 0.497857 -0.182142
-0.505156 0.480857 -0.165142
-0.505156 0.480857 -0.148142
-0.505156 0.497857 -0.165142
-0.505156 0.497857 -0.148142
-0.488155 0.497857 -0.165142
-0.488155 0.497857 -0.148142
-0.505156 0.446857 -0.131142
-0.505156 0.446857 -0.114142
-0.505156 0.463857 -0.131142
-0.505156 0.463857 -0.114142
-0.505156 0.446857 -0.097142
-0.505156 0.446857 -0.080142
-0.505156 0.463857 -0.097142
-0.505156 0.463857 -0.080142
-0.505156 0.480857 -0.131142
-0.505156 0.480857 -0.114142
-0.505156 0.497857 -0.131142
-0.505156 0.497857 -0.114142
-0.488155 0.497857 -0.131142
-0.488155 0.497857 -0.114142
-0.505156 0.480857 -0.097142
-0.505156 0.480857 -0.080142
-0.505156 0.497857 -0.097142
-0.505156 0.497857 -0.080142
-0.488155 0.497857 -0.097142
-0.488155 0.497857 -0.080142
-0.505156 0.446857 -0.063142
-0.505156 0.446857 -0.046142
-0.505156 0.463857 -0.063142
-0.505156 0.463857 -0.046142
-0.505156 0.446857 -0.029142
-0.505156 0.446857 -0.012142
-0.505156 0.463857 -0.029142
-0.505156 0.463857 -0.012142
-0.505156 0.480857 -0.063142
-0.505156 0.480857 -0.046142
-0.505156 0.497857 -0.063142
-0.505156 0.497857 -0.046142
-0.488155 0.497857 -0.063142
-0.488155 0.497857 -0.046142
-0.505156 0.480857 -0.029142
-0.505156 0.480857 -0.012142
-0.505156 0.497857 -0.029142
-0.505156 0.497857 -0.012142
-0.488155 0.497857 -0.029142
-0.488155 0.497857 -0.012142
-0.505156 0.446857 0.004858
-0.505156 0.446857 0.021858
-0.505156 0.463857 0.004858
-0.505156 0.463857 0.021858
-0.505156 0.446857 0.038858
-0.505156 0.446857 0.055858
-0.505156 0.463857 0.038858
-0.505156 0.463857 0.055858
-0.505156 0.480857 0.004858
-0.505156 0.480857 0.021858
-0.505156 0.497857 0.004858
-0.505156 0.497857 0.021858
-0.488155 0.497857 0.004858
-0.488155 0.497857 0.021858
-0.505156 0.480857 0.038858
-0.505156 0.480857 0.055858
-0.505156 0.497857 0.038858
-0.505156 0.497857 0.055858
-0.488155 0.497857 0.038858
-0.488155 0.497857 0.055858
-0.505156 0.038857 0.072858
-0.505156 0.038857 0.089858
-0.505156 0.055857 0.072858
-0.505156 0.055857 0.089858
-0.505156 0.038857 0.106858
-0.505156 0.038857 0.123858
-0.505156 0.055857 0.106858
-0.505156 0.055857 0.123858
-0.505156 0.072857 0.072858
-0.505156 0.072857 0.089858
-0.505156 0.089857 0.072858
-0.505156 0.089857 0.089858
-0.505156 0.072857 0.106858
-0.505156 0.072857 0.123858
-0.505156 0.089857 0.106858
-0.505156 0.089857 0.123858
-0.505156 0.038857 0.140858
-0.505156 0.038857 0.157858
-0.505156 0.055857 0.140858
-0.505156 0.055857 0.157858
-0.505156 0.038857 0.174858
-0.505156 0.038857 0.191858
-0.505156 0.055857 0.174858
-0.505156 0.055857 0.191858
-0.505156 0.072857 0.140858
-0.505156 0.072857 0.157858
-0.505156 0.089857 0.140858
-0.505156 0.089857 0.157858
-0.505156 0.072857 0.174858
-0.505156 0.072857 0.191858
-0.505156 0.089857 0.174858
-0.505156 0.089857 0.191858
-0.505156 0.106857 0.072858
-0.505156 0.106857 0.089858
-0.505156 0.123857 0.072858
-0.505156 0.123857 0.089858
-0.505156 0.106857 0.106858
-0.505156 0.106857 0.123858
-0.505156 0.123857 0.106858
-0.505156 0.123857 0.123858
-0.505156 0.140857 0.072858
-0.505156 0.140857 0.089858
-0.505156 0.157857 0.072858
-0.505156 0.157857 0.089858
-0.505156 0.140857 0.106858
-0.505156 0.140857 0.123858
-0.505156 0.157857 0.106858
-0.505156 0.157857 0.123858
-0.505156 0.106857 0.140858
-0.505156 0.106857 0.157858
-0.505156 0.123857 0.140858
-0.505156 0.123857 0.157858
-0.505156 0.106857 0.174858
-0.505156 0.106857 0.191858
-0.505156 0.123857 0.174858
-0.505156 0.123857 0.191858
-0.505156 0.140857 0.140858
-0.505156 0.140857 0.157858
-0.505156 0.157857 0.140858
-0.505156 0.157857 0.157858
-0.505156 0.140857 0.174858
-0.505156 0.140857 0.191858
-0.505156 0.157857 0.174858
-0.505156 0.157857 0.191858
-0.505156 0.038857 0.208858
-0.505156 0.038857 0.225858
-0.505156 0.055857 0.208858
-0.505156 0.055857 0.225858
-0.505156 0.038857 0.242858
-0.505156 0.038857 0.259858
-0.505156 0.055857 0.242858
-0.505156 0.055857 0.259858
-0.505156 0.072857 0.208858
-0.505156 0.072857 0.225858
-0.505156 0.089857 0.208858
-0.505156 0.089857 0.225858
-0.505156 0.072857 0.242858
-0.505156 0.072857 0.259858
-0.505156 0.089857 0.242858
-0.505156 0.089857 0.259858
-0.505156 0.038857 0.276858
-0.505156 0.038857 0.293858
-0.505156 0.055857 0.276858
-0.505156 0.055857 0.293858
-0.505156 0.038857 0.310858
-0.505156 0.038857 0.327858
-0.505156 0.055857 0.310858
-0.505156 0.055857 0.327858
-0.505156 0.072857 0.276858
-0.505156 0.072857 0.293858
-0.505156 0.089857 0.276858
-0.505156 0.089857 0.293858
-0.505156 0.072857 0.310858
-0.505156 0.072857 0.327858
-0.505156 0.089857 0.310858
-0.505156 0.089857 0.327858
-0.505156 0.106857 0.208858
-0.505156 0.106857 0.225858
-0.505156 0.123857 0.208858
-0.505156 0.123857 0.225858
-0.505156 0.106857 0.242858
-0.505156 0.106857 0.259858
-0.505156 0.123857 0.242858
-0.505156 0.123857 0.259858
-0.505156 0.140857 0.208858
-0.505156 0.140857 0.225858
-0.505156 0.157857 0.208858
-0.505156 0.157857 0.225858
-0.505156 0.140857 0.242858
-0.505156 0.140857 0.259858
-0.505156 0.157857 0.242858
-0.505156 0.157857 0.259858
-0.505156 0.106857 0.276858
-0.505156 0.106857 0.293858
-0.505156 0.123857 0.276858
-0.505156 0.123857 0.293858
-0.505156 0.106857 0.310858
-0.505156 0.106857 0.327858
-0.505156 0.123857 0.310858
-0.505156 0.123857 0.327858
-0.505156 0.140857 0.276858
-0.505156 0.140857 0.293858
-0.505156 0.157857 0.276858
-0.505156 0.157857 0.293858
-0.505156 0.140857 0.310858
-0.505156 0.140857 0.327858
-0.505156 0.157857 0.310858
-0.505156 0.157857 0.327858
-0.505156 0.174857 0.072858
-0.505156 0.174857 0.089858
-0.505156 0.191857 0.072858
-0.505156 0.191857 0.089858
-0.505156 0.174857 0.106858
-0.505156 0.174857 0.123858
-0.505156 0.191857 0.106858
-0.505156 0.191857 0.123858
-0.505156 0.208857 0.072858
-0.505156 0.208857 0.089858
-0.505156 0.225857 0.072858
-0.505156 0.225857 0.089858
-0.505156 0.208857 0.106858
-0.505156 0.208857 0.123858
-0.505156 0.225857 0.106858
-0.505156 0.225857 0.123858
-0.505156 0.174857 0.140858
-0.505156 0.174857 0.157858
-0.505156 0.191857 0.140858
-0.505156 0.191857 0.157858
-0.505156 0.174857 0.174858
-0.505156 0.174857 0.191858
-0.505156 0.191857 0.174858
-0.505156 0.191857 0.191858
-0.505156 0.208857 0.140858
-0.505156 0.208857 0.157858
-0.505156 0.225857 0.140858
-0.505156 0.225857 0.157858
-0.505156 0.208857 0.174858
-0.505156 0.208857 0.191858
-0.505156 0.225857 0.174858
-0.505156 0.225857 0.191858
-0.505156 0.242857 0.072858
-0.505156 0.242857 0.089858
-0.505156 0.259857 0.072858
-0.505156 0.259857 0.089858
-0.505156 0.242857 0.106858
-0.505156 0.242857 0.123858
-0.505156 0.259857 0.106858
-0.505156 0.259857 0.123858
-0.505156 0.276857 0.072858
-0.505156 0.276857 0.089858
-0.505156 0.293857 0.072858
-0.505156 0.293857 0.089858
-0.505156 0.276857 0.106858
-0.505156 0.276857 0.123858
-0.505156 0.293857 0.106858
-0.505156 0.293857 0.123858
-0.505156 0.242857 0.140858
-0.505156 0.242857 0.157858
-0.505156 0.259857 0.140858
-0.505156 0.259857 0.157858
-0.505156 0.242857 0.174858
-0.505156 0.242857 0.191858
-0.505156 0.259857 0.174858
-0.505156 0.259857 0.191858
-0.505156 0.276857 0.140858
-0.505156 0.276857 0.157858
-0.505156 0.293857 0.140858
-0.505156 0.293857 0.157858
-0.505156 0.276857 0.174858
-0.505156 0.276857 0.191858
-0.505156 0.293857 0.174858
-0.505156 0.293857 0.191858
-0.505156 0.174857 0.208858
-0.505156 0.174857 0.225858
-0.505156 0.191857 0.208858
-0.505156 0.191857 0.225858
-0.505156 0.174857 0.242858
-0.505156 0.174857 0.259858
-0.505156 0.191857 0.242858
-0.505156 0.191857 0.259858
-0.505156 0.208857 0.208858
-0.505156 0.208857 0.225858
-0.505156 0.225857 0.208858
-0.505156 0.225857 0.225858
-0.505156 0.208857 0.242858
-0.505156 0.208857 0.259858
-0.505156 0.225857 0.242858
-0.505156 0.225857 0.259858
-0.505156 0.174857 0.276858
-0.505156 0.174857 0.293858
-0.505156 0.191857 0.276858
-0.505156 0.191857 0.293858
-0.505156 0.174857 0.310858
-0.505156 0.174857 0.327858
-0.505156 0.191857 0.310858
-0.505156 0.191857 0.327858
-0.505156 0.208857 0.276858
-0.505156 0.208857 0.293858
-0.505156 0.225857 0.276858
-0.505156 0.225857 0.293858
-0.505156 0.208857 0.310858
-0.505156 0.208857 0.327858
-0.505156 0.225857 0.310858
-0.505156 0.225857 0.327858
-0.505156 0.242857 0.208858
-0.505156 0.242857 0.225858
-0.505156 0.259857 0.208858
-0.505156 0.259857 0.225858
-0.505156 0.242857 0.242858
-0.505156 0.242857 0.259858
-0.505156 0.259857 0.242858
-0.505156 0.259857 0.259858
-0.505156 0.276857 0.208858
-0.505156 0.276857 0.225858
-0.505156 0.293857 0.208858
-0.505156 0.293857 0.225858
-0.505156 0.276857 0.242858
-0.505156 0.276857 0.259858
-0.505156 0.293857 0.242858
-0.505156 0.293857 0.259858
-0.505156 0.242857 0.276858
-0.505156 0.242857 0.293858
-0.505156 0.259857 0.276858
-0.505156 0.259857 0.293858
-0.505156 0.242857 0.310858
-0.505156 0.242857 0.327858
-0.505156 0.259857 0.310858
-0.505156 0.259857 0.327858
-0.505156 0.276857 0.276858
-0.505156 0.276857 0.293858
-0.505156 0.293857 0.276858
-0.505156 0.293857 0.293858
-0.505156 0.276857 0.310858
-0.505156 0.276857 0.327858
-0.505156 0.293857 0.310858
-0.505156 0.293857 0.327858
-0.505156 0.038857 0.344858
-0.505156 0.038857 0.361858
-0.505156 0.055857 0.344858
-0.505156 0.055857 0.361858
-0.505156 0.038857 0.378858
-0.505156 0.038857 0.395858
-0.505156 0.055857 0.378858
-0.505156 0.055857 0.395858
-0.505156 0.072857 0.344858
-0.505156 0.072857 0.361858
-0.505156 0.089857 0.344858
-0.505156 0.089857 0.361858
-0.505156 0.072857 0.378858
-0.505156 0.072857 0.395858
-0.505156 0.089857 0.378858
-0.505156 0.089857 0.395858
-0.505156 0.038857 0.412858
-0.505156 0.038857 0.429858
-0.505156 0.055857 0.412858
-0.505156 0.055857 0.429858
-0.505156 0.038857 0.446858
-0.505156 0.038857 0.463858
-0.505156 0.055857 0.446858
-0.505156 0.055857 0.463858
-0.505156 0.072857 0.412858
-0.505156 0.072857 0.429858
-0.505156 0.089857 0.412858
-0.505156 0.089857 0.429858
-0.505156 0.072857 0.446858
-0.505156 0.072857 0.463858
-0.505156 0.089857 0.446858
-0.505156 0.089857 0.463858
-0.505156 0.106857 0.344858
-0.505156 0.106857 0.361858
-0.505156 0.123857 0.344858
-0.505156 0.123857 0.361858
-0.505156 0.106857 0.378858
-0.505156 0.106857 0.395858
-0.505156 0.123857 0.378858
-0.505156 0.123857 0.395858
-0.505156 0.140857 0.344858
-0.505156 0.140857 0.361858
-0.505156 0.157857 0.344858
-0.505156 0.157857 0.361858
-0.505156 0.140857 0.378858
-0.505156 0.140857 0.395858
-0.505156 0.157857 0.378858
-0.505156 0.157857 0.395858
-0.505156 0.106857 0.412858
-0.505156 0.106857 0.429858
-0.505156 0.123857 0.412858
-0.505156 0.123857 0.429858
-0.505156 0.106857 0.446858
-0.505156 0.106857 0.463858
-0.505156 0.123857 0.446858
-0.505156 0.123857 0.463858
-0.505156 0.140857 0.412858
-0.505156 0.140857 0.429858
-0.505156 0.157857 0.412858
-0.505156 0.157857 0.429858
-0.505156 0.140857 0.446858
-0.505156 0.140857 0.463858
-0.505156 0.157857 0.446858
-0.505156 0.157857 0.463858
-0.505156 0.038857 0.480858
-0.505156 0.038857 0.497858
-0.505156 0.055857 0.480858
-0.505156 0.055857 0.497858
-0.488155 0.038857 0.497858
-0.488155 0.055857 0.497858
-0.505156 0.072857 0.480858
-0.505156 0.072857 0.497858
-0.505156 0.089857 0.480858
-0.505156 0.089857 0.497858
-0.488155 0.072857 0.497858
-0.488155 0.089857 0.497858
-0.505156 0.106857 0.480858
-0.505156 0.106857 0.497858
-0.505156 0.123857 0.480858
-0.505156 0.123857 0.497858
-0.488155 0.106857 0.497858
-0.488155 0.123857 0.497858
-0.505156 0.140857 0.480858
-0.505156 0.140857 0.497858
-0.505156 0.157857 0.480858
-0.505156 0.157857 0.497858
-0.488155 0.140857 0.497858
-0.488155 0.157857 0.497858
-0.505156 0.174857 0.344858
-0.505156 0.174857 0.361858
-0.505156 0.191857 0.344858
-0.505156 0.191857 0.361858
-0.505156 0.174857 0.378858
-0.505156 0.174857 0.395858
-0.505156 0.191857 0.378858
-0.505156 0.191857 0.395858
-0.505156 0.208857 0.344858
-0.505156 0.208857 0.361858
-0.505156 0.225857 0.344858
-0.505156 0.225857 0.361858
-0.505156 0.208857 0.378858
-0.505156 0.208857 0.395858
-0.505156 0.225857 0.378858
-0.505156 0.225857 0.395858
-0.505156 0.174857 0.412858
-0.505156 0.174857 0.429858
-0.505156 0.191857 0.412858
-0.505156 0.191857 0.429858
-0.505156 0.174857 0.446858
-0.505156 0.174857 0.463858
-0.505156 0.191857 0.446858
-0.505156 0.191857 0.463858
-0.505156 0.208857 0.412858
-0.505156 0.208857 0.429858
-0.505156 0.225857 0.412858
-0.505156 0.225857 0.429858
-0.505156 0.208857 0.446858
-0.505156 0.208857 0.463858
-0.505156 0.225857 0.446858
-0.505156 0.225857 0.463858
-0.505156 0.242857 0.344858
-0.505156 0.242857 0.361858
-0.505156 0.259857 0.344858
-0.505156 0.259857 0.361858
-0.505156 0.242857 0.378858
-0.505156 0.242857 0.395858
-0.505156 0.259857 0.378858
-0.505156 0.259857 0.395858
-0.505156 0.276857 0.344858
-0.505156 0.276857 0.361858
-0.505156 0.293857 0.344858
-0.505156 0.293857 0.361858
-0.505156 0.276857 0.378858
-0.505156 0.276857 0.395858
-0.505156 0.293857 0.378858
-0.505156 0.293857 0.395858
-0.505156 0.242857 0.412858
-0.505156 0.242857 0.429858
-0.505156 0.259857 0.412858
-0.505156 0.259857 0.429858
-0.505156 0.242857 0.446858
-0.505156 0.242857 0.463858
-0.505156 0.259857 0.446858
-0.505156 0.259857 0.463858
-0.505156 0.276857 0.412858
-0.505156 0.276857 0.429858
-0.505156 0.293857 0.412858
-0.505156 0.293857 0.429858
-0.505156 0.276857 0.446858
-0.505156 0.276857 0.463858
-0.505156 0.293857 0.446858
-0.505156 0.293857 0.463858
-0.505156 0.174857 0.480858
-0.505156 0.174857 0.497858
-0.505156 0.191857 0.480858
-0.505156 0.191857 0.497858
-0.488155 0.174857 0.497858
-0.488155 0.191857 0.497858
-0.505156 0.208857 0.480858
-0.505156 0.208857 0.497858
-0.505156 0.225857 0.480858
-0.505156 0.225857 0.497858
-0.488155 0.208857 0.497858
-0.488155 0.225857 0.497858
-0.505156 0.242857 0.480858
-0.505156 0.242857 0.497858
-0.505156 0.259857 0.480858
-0.505156 0.259857 0.497858
-0.488155 0.242857 0.497858
-0.488155 0.259857 0.497858
-0.505156 0.276857 0.480858
-0.505156 0.276857 0.497858
-0.505156 0.293857 0.480858
-0.505156 0.293857 0.497858
-0.488155 0.276857 0.497858
-0.488155 0.293857 0.497858
-0.505156 0.310857 0.072858
-0.505156 0.310857 0.089858
-0.505156 0.327857 0.072858
-0.505156 0.327857 0.089858
-0.505156 0.310857 0.106858
-0.505156 0.310857 0.123858
-0.505156 0.327857 0.106858
-0.505156 0.327857 0.123858
-0.505156 0.344857 0.072858
-0.505156 0.344857 0.089858
-0.505156 0.361857 0.072858
-0.505156 0.361857 0.089858
-0.505156 0.344857 0.106858
-0.505156 0.344857 0.123858
-0.505156 0.361857 0.106858
-0.505156 0.361857 0.123858
-0.505156 0.310857 0.140858
-0.505156 0.310857 0.157858
-0.505156 0.327857 0.140858
-0.505156 0.327857 0.157858
-0.505156 0.310857 0.174858
-0.505156 0.310857 0.191858
-0.505156 0.327857 0.174858
-0.505156 0.327857 0.191858
-0.505156 0.344857 0.140858
-0.505156 0.344857 0.157858
-0.505156 0.361857 0.140858
-0.505156 0.361857 0.157858
-0.505156 0.344857 0.174858
-0.505156 0.344857 0.191858
-0.505156 0.361857 0.174858
-0.505156 0.361857 0.191858
-0.505156 0.378857 0.072858
-0.505156 0.378857 0.089858
-0.505156 0.395857 0.072858
-0.505156 0.395857 0.089858
-0.505156 0.378857 0.106858
-0.505156 0.378857 0.123858
-0.505156 0.395857 0.106858
-0.505156 0.395857 0.123858
-0.505156 0.412857 0.072858
-0.505156 0.412857 0.089858
-0.505156 0.429857 0.072858
-0.505156 0.429857 0.089858
-0.505156 0.412857 0.106858
-0.505156 0.412857 0.123858
-0.505156 0.429857 0.106858
-0.505156 0.429857 0.123858
-0.505156 0.378857 0.140858
-0.505156 0.378857 0.157858
-0.505156 0.395857 0.140858
-0.505156 0.395857 0.157858
-0.505156 0.378857 0.174858
-0.505156 0.378857 0.191858
-0.505156 0.395857 0.174858
-0.505156 0.395857 0.191858
-0.505156 0.412857 0.140858
-0.505156 0.412857 0.157858
-0.505156 0.429857 0.140858
-0.505156 0.429857 0.157858
-0.505156 0.412857 0.174858
-0.505156 0.412857 0.191858
-0.505156 0.429857 0.174858
-0.505156 0.429857 0.191858
-0.505156 0.310857 0.208858
-0.505156 0.310857 0.225858
-0.505156 0.327857 0.208858
-0.505156 0.327857 0.225858
-0.505156 0.310857 0.242858
-0.505156 0.310857 0.259858
-0.505156 0.327857 0.242858
-0.505156 0.327857 0.259858
-0.505156 0.344857 0.208858
-0.505156 0.344857 0.225858
-0.505156 0.361857 0.208858
-0.505156 0.361857 0.225858
-0.505156 0.344857 0.242858
-0.505156 0.344857 0.259858
-0.505156 0.361857 0.242858
-0.505156 0.361857 0.259858
-0.505156 0.310857 0.276858
-0.505156 0.310857 0.293858
-0.505156 0.327857 0.276858
-0.505156 0.327857 0.293858
-0.505156 0.310857 0.310858
-0.505156 0.310857 0.327858
-0.505156 0.327857 0.310858
-0.505156 0.327857 0.327858
-0.505156 0.344857 0.276858
-0.505156 0.344857 0.293858
-0.505156 0.361857 0.276858
-0.505156 0.361857 0.293858
-0.505156 0.344857 0.310858
-0.505156 0.344857 0.327858
-0.505156 0.361857 0.310858
-0.505156 0.361857 0.327858
-0.505156 0.378857 0.208858
-0.505156 0.378857 0.225858
-0.505156 0.395857 0.208858
-0.505156 0.395857 0.225858
-0.505156 0.378857 0.242858
-0.505156 0.378857 0.259858
-0.505156 0.395857 0.242858
-0.505156 0.395857 0.259858
-0.505156 0.412857 0.208858
-0.505156 0.412857 0.225858
-0.505156 0.429857 0.208858
-0.505156 0.429857 0.225858
-0.505156 0.412857 0.242858
-0.505156 0.412857 0.259858
-0.505156 0.429857 0.242858
-0.505156 0.429857 0.259858
-0.505156 0.378857 0.276858
-0.505156 0.378857 0.293858
-0.505156 0.395857 0.276858
-0.505156 0.395857 0.293858
-0.505156 0.378857 0.310858
-0.505156 0.378857 0.327858
-0.505156 0.395857 0.310858
-0.505156 0.395857 0.327858
-0.505156 0.412857 0.276858
-0.505156 0.412857 0.293858
-0.505156 0.429857 0.276858
-0.505156 0.429857 0.293858
-0.505156 0.412857 0.310858
-0.505156 0.412857 0.327858
-0.505156 0.429857 0.310858
-0.505156 0.429857 0.327858
-0.505156 0.446857 0.072858
-0.505156 0.446857 0.089858
-0.505156 0.463857 0.072858
-0.505156 0.463857 0.089858
-0.505156 0.446857 0.106858
-0.505156 0.446857 0.123858
-0.505156 0.463857 0.106858
-0.505156 0.463857 0.123858
-0.505156 0.480857 0.072858
-0.505156 0.480857 0.089858
-0.505156 0.497857 0.072858
-0.505156 0.497857 0.089858
-0.488155 0.497857 0.072858
-0.488155 0.497857 0.089858
-0.505156 0.480857 0.106858
-0.505156 0.480857 0.123858
-0.505156 0.497857 0.106858
-0.505156 0.497857 0.123858
-0.488155 0.497857 0.106858
-0.488155 0.497857 0.123858
-0.505156 0.446857 0.140858
-0.505156 0.446857 0.157858
-0.505156 0.463857 0.140858
-0.505156 0.463857 0.157858
-0.505156 0.446857 0.174858
-0.505156 0.446857 0.191858
-0.505156 0.463857 0.174858
-0.505156 0.463857 0.191858
-0.505156 0.480857 0.140858
-0.505156 0.480857 0.157858
-0.505156 0.497857 0.140858
-0.505156 0.497857 0.157858
-0.488155 0.497857 0.140858
-0.488155 0.497857 0.157858
-0.505156 0.480857 0.174858
-0.505156 0.480857 0.191858
-0.505156 0.497857 0.174858
-0.505156 0.497857 0.191858
-0.488155 0.497857 0.174858
-0.488155 0.497857 0.191858
-0.505156 0.446857 0.208858
-0.505156 0.446857 0.225858
-0.505156 0.463857 0.208858
-0.505156 0.463857 0.225858
-0.505156 0.446857 0.242858
-0.505156 0.446857 0.259858
-0.505156 0.463857 0.242858
-0.505156 0.463857 0.259858
-0.505156 0.480857 0.208858
-0.505156 0.480857 0.225858
-0.505156 0.497857 0.208858
-0.505156 0.497857 0.225858
-0.488155 0.497857 0.208858
-0.488155 0.497857 0.225858
-0.505156 0.480857 0.242858
-0.505156 0.480857 0.259858
-0.505156 0.497857 0.242858
-0.505156 0.497857 0.259858
-0.488155 0.497857 0.242858
-0.488155 0.497857 0.259858
-0.505156 0.446857 0.276858
-0.505156 0.446857 0.293858
-0.505156 0.463857 0.276858
-0.505156 0.463857 0.293858
-0.505156 0.446857 0.310858
-0.505156 0.446857 0.327858
-0.505156 0.463857 0.310858
-0.505156 0.463857 0.327858
-0.505156 0.480857 0.276858
-0.505156 0.480857 0.293858
-0.505156 0.497857 0.276858
-0.505156 0.497857 0.293858
-0.488155 0.497857 0.276858
-0.488155 0.497857 0.293858
-0.505156 0.480857 0.310858
-0.505156 0.480857 0.327858
-0.505156 0.497857 0.310858
-0.505156 0.497857 0.327858
-0.488155 0.497857 0.310858
-0.488155 0.497857 0.327858
-0.505156 0.310857 0.344858
-0.505156 0.310857 0.361858
-0.505156 0.327857 0.344858
-0.505156 0.327857 0.361858
-0.505156 0.310857 0.378858
-0.505156 0.310857 0.395858
-0.505156 0.327857 0.378858
-0.505156 0.327857 0.395858
-0.505156 0.344857 0.344858
-0.505156 0.344857 0.361858
-0.505156 0.361857 0.344858
-0.505156 0.361857 0.361858
-0.505156 0.344857 0.378858
-0.505156 0.344857 0.395858
-0.505156 0.361857 0.378858
-0.505156 0.361857 0.395858
-0.505156 0.310857 0.412858
-0.505156 0.310857 0.429858
-0.505156 0.327857 0.412858
-0.505156 0.327857 0.429858
-0.505156 0.310857 0.446858
-0.505156 0.310857 0.463858
-0.505156 0.327857 0.446858
-0.505156 0.327857 0.463858
-0.505156 0.344857 0.412858
-0.505156 0.344857 0.429858
-0.505156 0.361857 0.412858
-0.505156 0.361857 0.429858
-0.505156 0.344857 0.446858
-0.505156 0.344857 0.463858
-0.505156 0.361857 0.446858
-0.505156 0.361857 0.463858
-0.505156 0.378857 0.344858
-0.505156 0.378857 0.361858
-0.505156 0.395857 0.344858
-0.505156 0.395857 0.361858
-0.505156 0.378857 0.378858
-0.505156 0.378857 0.395858
-0.505156 0.395857 0.378858
-0.505156 0.395857 0.395858
-0.505156 0.412857 0.344858
-0.505156 0.412857 0.361858
-0.505156 0.429857 0.344858
-0.505156 0.429857 0.361858
-0.505156 0.412857 0.378858
-0.505156 0.412857 0.395858
-0.505156 0.429857 0.378858
-0.505156 0.429857 0.395858
-0.505156 0.378857 0.412858
-0.505156 0.378857 0.429858
-0.505156 0.395857 0.412858
-0.505156 0.395857 0.429858
-0.505156 0.378857 0.446858
-0.505156 0.378857 0.463858
-0.505156 0.395857 0.446858
-0.505156 0.395857 0.463858
-0.505156 0.412857 0.412858
-0.505156 0.412857 0.429858
-0.505156 0.429857 0.412858
-0.505156 0.429857 0.429858
-0.505156 0.412857 0.446858
-0.505156 0.412857 0.463858
-0.505156 0.429857 0.446858
-0.505156 0.429857 0.463858
-0.505156 0.310857 0.480858
-0.505156 0.310857 0.497858
-0.505156 0.327857 0.480858
-0.505156 0.327857 0.497858
-0.488155 0.310857 0.497858
-0.488155 0.327857 0.497858
-0.505156 0.344857 0.480858
-0.505156 0.344857 0.497858
-0.505156 0.361857 0.480858
-0.505156 0.361857 0.497858
-0.488155 0.344857 0.497858
-0.488155 0.361857 0.497858
-0.505156 0.378857 0.480858
-0.505156 0.378857 0.497858
-0.505156 0.395857 0.480858
-0.505156 0.395857 0.497858
-0.488155 0.378857 0.497858
-0.488155 0.395857 0.497858
-0.505156 0.412857 0.480858
-0.505156 0.412857 0.497858
-0.505156 0.429857 0.480858
-0.505156 0.429857 0.497858
-0.488155 0.412857 0.497858
-0.488155 0.429857 0.497858
-0.505156 0.446857 0.344858
-0.505156 0.446857 0.361858
-0.505156 0.463857 0.344858
-0.505156 0.463857 0.361858
-0.505156 0.446857 0.378858
-0.505156 0.446857 0.395858
-0.505156 0.463857 0.378858
-0.505156 0.463857 0.395858
-0.505156 0.480857 0.344858
-0.505156 0.480857 0.361858
-0.505156 0.497857 0.344858
-0.505156 0.497857 0.361858
-0.488155 0.497857 0.344858
-0.488155 0.497857 0.361858
-0.505156 0.480857 0.378858
-0.505156 0.480857 0.395858
-0.505156 0.497857 0.378858
-0.505156 0.497857 0.395858
-0.488155 0.497857 0.378858
-0.488155 0.497857 0.395858
-0.505156 0.446857 0.412858
-0.505156 0.446857 0.429858
-0.505156 0.463857 0.412858
-0.505156 0.463857 0.429858
-0.505156 0.446857 0.446858
-0.505156 0.446857 0.463858
-0.505156 0.463857 0.446858
-0.505156 0.463857 0.463858
-0.505156 0.480857 0.412858
-0.505156 0.480857 0.429858
-0.505156 0.497857 0.412858
-0.505156 0.497857 0.429858
-0.488155 0.497857 0.412858
-0.488155 0.497857 0.429858
-0.505156 0.480857 0.446858
-0.505156 0.480857 0.463858
-0.505156 0.497857 0.446858
-0.505156 0.497857 0.463858
-0.488155 0.497857 0.446858
-0.488155 0.497857 0.463858
-0.505156 0.446857 0.480858
-0.505156 0.446857 0.497858
-0.505156 0.463857 0.480858
-0.505156 0.463857 0.497858
-0.488155 0.446857 0.497858
-0.488155 0.463857 0.497858
-0.505156 0.480857 0.480858
-0.505156 0.480857 0.497858
-0.505156 0.497857 0.480858
-0.505156 0.497857 0.497858
-0.488155 0.480857 0.497858
-0.488155 0.497857 0.480858
-0.488155 0.497857 0.497858
-0.471155 -0.505143 -0.471142
-0.471155 -0.505143 -0.454142
-0.454155 -0.505143 -0.471142
-0.454155 -0.505143 -0.454142
-0.471155 -0.505143 -0.437142
-0.471155 -0.505143 -0.420142
-0.454155 -0.505143 -0.437142
-0.454155 -0.505143 -0.420142
-0.437155 -0.505143 -0.471142
-0.437155 -0.505143 -0.454142
-0.420155 -0.505143 -0.471142
-0.420155 -0.505143 -0.454142
-0.437155 -0.505143 -0.437142
-0.437155 -0.505143 -0.420142
-0.420155 -0.505143 -0.437142
-0.420155 -0.505143 -0.420142
-0.471155 -0.505143 -0.403142
-0.471155 -0.505143 -0.386142
-0.454155 -0.505143 -0.403142
-0.454155 -0.505143 -0.386142
-0.471155 -0.505143 -0.369142
-0.471155 -0.505143 -0.352142
-0.454155 -0.505143 -0.369142
-0.454155 -0.505143 -0.352142
-0.437155 -0.505143 -0.403142
-0.437155 -0.505143 -0.386142
-0.420155 -0.505143 -0.403142
-0.420155 -0.505143 -0.386142
-0.437155 -0.505143 -0.369142
-0.437155 -0.505143 -0.352142
-0.420155 -0.505143 -0.369142
-0.420155 -0.505143 -0.352142
-0.403155 -0.505143 -0.471142
-0.403155 -0.505143 -0.454142
-0.386155 -0.505143 -0.471142
-0.386155 -0.505143 -0.454142
-0.403155 -0.505143 -0.437142
-0.403155 -0.505143 -0.420142
-0.386155 -0.505143 -0.437142
-0.386155 -0.505143 -0.420142
-0.369155 -0.505143 -0.471142
-0.369155 -0.505143 -0.454142
-0.352155 -0.505143 -0.471142
-0.352155 -0.505143 -0.454142
-0.369155 -0.505143 -0.437142
-0.369155 -0.505143 -0.420142
-0.352155 -0.505143 -0.437142
-0.352155 -0.505143 -0.420142
-0.403155 -0.505143 -0.403142
-0.403155 -0.505143 -0.386142
-0.386155 -0.505143 -0.403142
-0.386155 -0.505143 -0.386142
-0.403155 -0.505143 -0.369142
-0.403155 -0.505143 -0.352142
-0.386155 -0.505143 -0.369142
-0.386155 -0.505143 -0.352142
-0.369155 -0.505143 -0.403142
-0.369155 -0.505143 -0.386142
-0.352155 -0.505143 -0.403142
-0.352155 -0.505143 -0.386142
-0.369155 -0.505143 -0.369142
-0.369155 -0.505143 -0.352142
-0.352155 -0.505143 -0.369142
-0.352155 -0.505143 -0.352142
-0.471155 -0.505143 -0.335142
-0.471155 -0.505143 -0.318142
-0.454155 -0.505143 -0.335142
-0.454155 -0.505143 -0.318142
-0.471155 -0.505143 -0.301142
-0.471155 -0.505143 -0.284142
-0.454155 -0.505143 -0.301142
-0.454155 -0.505143 -0.284142
-0.437155 -0.505143 -0.335142
-0.437155 -0.505143 -0.318142
-0.420155 -0.505143 -0.335142
-0.420155 -0.505143 -0.318142
-0.437155 -0.505143 -0.301142
-0.437155 -0.505143 -0.284142
-0.420155 -0.505143 -0.301142
-0.420155 -0.505143 -0.284142
-0.471155 -0.505143 -0.267142
-0.471155 -0.505143 -0.250142
-0.454155 -0.505143 -0.267142
-0.454155 -0.505143 -0.250142
-0.471155 -0.505143 -0.233142
-0.471155 -0.505143 -0.216142
-0.454155 -0.505143 -0.233142
-0.454155 -0.505143 -0.216142
-0.437155 -0.505143 -0.267142
-0.437155 -0.505143 -0.250142
-0.420155 -0.505143 -0.267142
-0.420155 -0.505143 -0.250142
-0.437155 -0.505143 -0.233142
-0.437155 -0.505143 -0.216142
-0.420155 -0.505143 -0.233142
-0.420155 -0.505143 -0.216142
-0.403155 -0.505143 -0.335142
-0.403155 -0.505143 -0.318142
-0.386155 -0.505143 -0.335142
-0.386155 -0.505143 -0.318142
-0.403155 -0.505143 -0.301142
-0.403155 -0.505143 -0.284142
-0.386155 -0.505143 -0.301142
-0.386155 -0.505143 -0.284142
-0.369155 -0.505143 -0.335142
-0.369155 -0.505143 -0.318142
-0.352155 -0.505143 -0.335142
-0.352155 -0.505143 -0.318142
-0.369155 -0.505143 -0.301142
-0.369155 -0.505143 -0.284142
-0.352155 -0.505143 -0.301142
-0.352155 -0.505143 -0.284142
-0.403155 -0.505143 -0.267142
-0.403155 -0.505143 -0.250142
-0.386155 -0.505143 -0.267142
-0.386155 -0.505143 -0.250142
-0.403155 -0.505143 -0.233142
-0.403155 -0.505143 -0.216142
-0.386155 -0.505143 -0.233142
-0.386155 -0.505143 -0.216142
-0.369155 -0.505143 -0.267142
-0.369155 -0.505143 -0.250142
-0.352155 -0.505143 -0.267142
-0.352155 -0.505143 -0.250142
-0.369155 -0.505143 -0.233142
-0.369155 -0.505143 -0.216142
-0.352155 -0.505143 -0.233142
-0.352155 -0.505143 -0.216142
-0.335155 -0.505143 -0.471142
-0.335155 -0.505143 -0.454142
-0.318155 -0.505143 -0.471142
-0.318155 -0.505143 -0.454142
-0.335155 -0.505143 -0.437142
-0.335155 -0.505143 -0.420142
-0.318155 -0.505143 -0.437142
-0.318155 -0.505143 -0.420142
-0.301155 -0.505143 -0.471142
-0.301155 -0.505143 -0.454142
-0.284155 -0.505143 -0.471142
-0.284155 -0.505143 -0.454142
-0.301155 -0.505143 -0.437142
-0.301155 -0.505143 -0.420142
-0.284155 -0.505143 -0.437142
-0.284155 -0.505143 -0.420142
-0.335155 -0.505143 -0.403142
-0.335155 -0.505143 -0.386142
-0.318155 -0.505143 -0.403142
-0.318155 -0.505143 -0.386142
-0.335155 -0.505143 -0.369142
-0.335155 -0.505143 -0.352142
-0.318155 -0.505143 -0.369142
-0.318155 -0.505143 -0.352142
-0.301155 -0.505143 -0.403142
-0.301155 -0.505143 -0.386142
-0.284155 -0.505143 -0.403142
-0.284155 -0.505143 -0.386142
-0.301155 -0.505143 -0.369142
-0.301155 -0.505143 -0.352142
-0.284155 -0.505143 -0.369142
-0.284155 -0.505143 -0.352142
-0.267155 -0.505143 -0.471142
-0.267155 -0.505143 -0.454142
-0.250155 -0.505143 -0.471142
-0.250155 -0.505143 -0.454142
-0.267155 -0.505143 -0.437142
-0.267155 -0.505143 -0.420142
-0.250155 -0.505143 -0.437142
-0.250155 -0.505143 -0.420142
-0.233155 -0.505143 -0.471142
-0.233155 -0.505143 -0.454142
-0.216155 -0.505143 -0.471142
-0.216155 -0.505143 -0.454142
-0.233155 -0.505143 -0.437142
-0.233155 -0.505143 -0.420142
-0.216155 -0.505143 -0.437142
-0.216155 -0.505143 -0.420142
-0.267155 -0.505143 -0.403142
-0.267155 -0.505143 -0.386142
-0.250155 -0.505143 -0.403142
-0.250155 -0.505143 -0.386142
-0.267155 -0.505143 -0.369142
-0.267155 -0.505143 -0.352142
-0.250155 -0.505143 -0.369142
-0.250155 -0.505143 -0.352142
-0.233155 -0.505143 -0.403142
-0.233155 -0.505143 -0.386142
-0.216155 -0.505143 -0.403142
-0.216155 -0.505143 -0.386142
-0.233155 -0.505143 -0.369142
-0.233155 -0.505143 -0.352142
-0.216155 -0.505143 -0.369142
-0.216155 -0.505143 -0.352142
-0.335155 -0.505143 -0.335142
-0.335155 -0.505143 -0.318142
-0.318155 -0.505143 -0.335142
-0.318155 -0.505143 -0.318142
-0.335155 -0.505143 -0.301142
-0.335155 -0.505143 -0.284142
-0.318155 -0.505143 -0.301142
-0.318155 -0.505143 -0.284142
-0.301155 -0.505143 -0.335142
-0.301155 -0.505143 -0.318142
-0.284155 -0.505143 -0.335142
-0.284155 -0.505143 -0.318142
-0.301155 -0.505143 -0.301142
-0.301155 -0.505143 -0.284142
-0.284155 -0.505143 -0.301142
-0.284155 -0.505143 -0.284142
-0.335155 -0.505143 -0.267142
-0.335155 -0.505143 -0.250142
-0.318155 -0.505143 -0.267142
-0.318155 -0.505143 -0.250142
-0.335155 -0.505143 -0.233142
-0.335155 -0.505143 -0.216142
-0.318155 -0.505143 -0.233142
-0.318155 -0.505143 -0.216142
-0.301155 -0.505143 -0.267142
-0.301155 -0.505143 -0.250142
-0.284155 -0.505143 -0.267142
-0.284155 -0.505143 -0.250142
-0.301155 -0.505143 -0.233142
-0.301155 -0.505143 -0.216142
-0.284155 -0.505143 -0.233142
-0.284155 -0.505143 -0.216142
-0.267155 -0.505143 -0.335142
-0.267155 -0.505143 -0.318142
-0.250155 -0.505143 -0.335142
-0.250155 -0.505143 -0.318142
-0.267155 -0.505143 -0.301142
-0.267155 -0.505143 -0.284142
-0.250155 -0.505143 -0.301142
-0.250155 -0.505143 -0.284142
-0.233155 -0.505143 -0.335142
-0.233155 -0.505143 -0.318142
-0.216155 -0.505143 -0.335142
-0.216155 -0.505143 -0.318142
-0.233155 -0.505143 -0.301142
-0.233155 -0.505143 -0.284142
-0.216155 -0.505143 -0.301142
-0.216155 -0.505143 -0.284142
-0.267155 -0.505143 -0.267142
-0.267155 -0.505143 -0.250142
-0.250155 -0.505143 -0.267142
-0.250155 -0.505143 -0.250142
-0.267155 -0.505143 -0.233142
-0.267155 -0.505143 -0.216142
-0.250155 -0.505143 -0.233142
-0.250155 -0.505143 -0.216142
-0.233155 -0.505143 -0.267142
-0.233155 -0.505143 -0.250142
-0.216155 -0.505143 -0.267142
-0.216155 -0.505143 -0.250142
-0.233155 -0.505143 -0.233142
-0.233155 -0.505143 -0.216142
-0.216155 -0.505143 -0.233142
-0.216155 -0.505143 -0.216142
-0.471155 -0.505143 -0.199142
-0.471155 -0.505143 -0.182142
-0.454155 -0.505143 -0.199142
-0.454155 -0.505143 -0.182142
-0.471155 -0.505143 -0.165142
-0.471155 -0.505143 -0.148142
-0.454155 -0.505143 -0.165142
-0.454155 -0.505143 -0.148142
-0.437155 -0.505143 -0.199142
-0.437155 -0.505143 -0.182142
-0.420155 -0.505143 -0.199142
-0.420155 -0.505143 -0.182142
-0.437155 -0.505143 -0.165142
-0.437155 -0.505143 -0.148142
-0.420155 -0.505143 -0.165142
-0.420155 -0.505143 -0.148142
-0.471155 -0.505143 -0.131142
-0.471155 -0.505143 -0.114142
-0.454155 -0.505143 -0.131142
-0.454155 -0.505143 -0.114142
-0.471155 -0.505143 -0.097142
-0.471155 -0.505143 -0.080142
-0.454155 -0.505143 -0.097142
-0.454155 -0.505143 -0.080142
-0.437155 -0.505143 -0.131142
-0.437155 -0.505143 -0.114142
-0.420155 -0.505143 -0.131142
-0.420155 -0.505143 -0.114142
-0.437155 -0.505143 -0.097142
-0.437155 -0.505143 -0.080142
-0.420155 -0.505143 -0.097142
-0.420155 -0.505143 -0.080142
-0.403155 -0.505143 -0.199142
-0.403155 -0.505143 -0.182142
-0.386155 -0.505143 -0.199142
-0.386155 -0.505143 -0.182142
-0.403155 -0.505143 -0.165142
-0.403155 -0.505143 -0.148142
-0.386155 -0.505143 -0.165142
-0.386155 -0.505143 -0.148142
-0.369155 -0.505143 -0.199142
-0.369155 -0.505143 -0.182142
-0.352155 -0.505143 -0.199142
-0.352155 -0.505143 -0.182142
-0.369155 -0.505143 -0.165142
-0.369155 -0.505143 -0.148142
-0.352155 -0.505143 -0.165142
-0.352155 -0.505143 -0.148142
-0.403155 -0.505143 -0.131142
-0.403155 -0.505143 -0.114142
-0.386155 -0.505143 -0.131142
-0.386155 -0.505143 -0.114142
-0.403155 -0.505143 -0.097142
-0.403155 -0.505143 -0.080142
-0.386155 -0.505143 -0.097142
-0.386155 -0.505143 -0.080142
-0.369155 -0.505143 -0.131142
-0.369155 -0.505143 -0.114142
-0.352155 -0.505143 -0.131142
-0.352155 -0.505143 -0.114142
-0.369155 -0.505143 -0.097142
-0.369155 -0.505143 -0.080142
-0.352155 -0.505143 -0.097142
-0.352155 -0.505143 -0.080142
-0.471155 -0.505143 -0.063142
-0.471155 -0.505143 -0.046142
-0.454155 -0.505143 -0.063142
-0.454155 -0.505143 -0.046142
-0.471155 -0.505143 -0.029142
-0.471155 -0.505143 -0.012142
-0.454155 -0.505143 -0.029142
-0.454155 -0.505143 -0.012142
-0.437155 -0.505143 -0.063142
-0.437155 -0.505143 -0.046142
-0.420155 -0.505143 -0.063142
-0.420155 -0.505143 -0.046142
-0.437155 -0.505143 -0.029142
-0.437155 -0.505143 -0.012142
-0.420155 -0.505143 -0.029142
-0.420155 -0.505143 -0.012142
-0.471155 -0.505143 0.004858
-0.471155 -0.505143 0.021858
-0.454155 -0.505143 0.004858
-0.454155 -0.505143 0.021858
-0.471155 -0.505143 0.038858
-0.471155 -0.505143 0.055858
-0.454155 -0.505143 0.038858
-0.454155 -0.505143 0.055858
-0.437155 -0.505143 0.004858
-0.437155 -0.505143 0.021858
-0.420155 -0.505143 0.004858
-0.420155 -0.505143 0.021858
-0.437155 -0.505143 0.038858
-0.437155 -0.505143 0.055858
-0.420155 -0.505143 0.038858
-0.420155 -0.505143 0.055858
-0.403155 -0.505143 -0.063142
-0.403155 -0.505143 -0.046142
-0.386155 -0.505143 -0.063142
-0.386155 -0.505143 -0.046142
-0.403155 -0.505143 -0.029142
-0.403155 -0.505143 -0.012142
-0.386155 -0.505143 -0.029142
-0.386155 -0.505143 -0.012142
-0.369155 -0.505143 -0.063142
-0.369155 -0.505143 -0.046142
-0.352155 -0.505143 -0.063142
-0.352155 -0.505143 -0.046142
-0.369155 -0.505143 -0.029142
-0.369155 -0.505143 -0.012142
-0.352155 -0.505143 -0.029142
-0.352155 -0.505143 -0.012142
-0.403155 -0.505143 0.004858
-0.403155 -0.505143 0.021858
-0.386155 -0.505143 0.004858
-0.386155 -0.505143 0.021858
-0.403155 -0.505143 0.038858
-0.403155 -0.505143 0.055858
-0.386155 -0.505143 0.038858
-0.386155 -0.505143 0.055858
-0.369155 -0.505143 0.004858
-0.369155 -0.505143 0.021858
-0.352155 -0.505143 0.004858
-0.352155 -0.505143 0.021858
-0.369155 -0.505143 0.038858
-0.369155 -0.505143 0.055858
-0.352155 -0.505143 0.038858
-0.352155 -0.505143 0.055858
-0.335155 -0.505143 -0.199142
-0.335155 -0.505143 -0.182142
-0.318155 -0.505143 -0.199142
-0.318155 -0.505143 -0.182142
-0.335155 -0.505143 -0.165142
-0.335155 -0.505143 -0.148142
-0.318155 -0.505143 -0.165142
-0.318155 -0.505143 -0.148142
-0.301155 -0.505143 -0.199142
-0.301155 -0.505143 -0.182142
-0.284155 -0.505143 -0.199142
-0.284155 -0.505143 -0.182142
-0.301155 -0.505143 -0.165142
-0.301155 -0.505143 -0.148142
-0.284155 -0.505143 -0.165142
-0.284155 -0.505143 -0.148142
-0.335155 -0.505143 -0.131142
-0.335155 -0.505143 -0.114142
-0.318155 -0.505143 -0.131142
-0.318155 -0.505143 -0.114142
-0.335155 -0.505143 -0.097142
-0.335155 -0.505143 -0.080142
-0.318155 -0.505143 -0.097142
-0.318155 -0.505143 -0.080142
-0.301155 -0.505143 -0.131142
-0.301155 -0.505143 -0.114142
-0.284155 -0.505143 -0.131142
-0.284155 -0.505143 -0.114142
-0.301155 -0.505143 -0.097142
-0.301155 -0.505143 -0.080142
-0.284155 -0.505143 -0.097142
-0.284155 -0.505143 -0.080142
-0.267155 -0.505143 -0.199142
-0.267155 -0.505143 -0.182142
-0.250155 -0.505143 -0.199142
-0.250155 -0.505143 -0.182142
-0.267155 -0.505143 -0.165142
-0.267155 -0.505143 -0.148142
-0.250155 -0.505143 -0.165142
-0.250155 -0.505143 -0.148142
-0.233155 -0.505143 -0.199142
-0.233155 -0.505143 -0.182142
-0.216155 -0.505143 -0.199142
-0.216155 -0.505143 -0.182142
-0.233155 -0.505143 -0.165142
-0.233155 -0.505143 -0.148142
-0.216155 -0.505143 -0.165142
-0.216155 -0.505143 -0.148142
-0.267155 -0.505143 -0.131142
-0.267155 -0.505143 -0.114142
-0.250155 -0.505143 -0.131142
-0.250155 -0.505143 -0.114142
-0.267155 -0.505143 -0.097142
-0.267155 -0.505143 -0.080142
-0.250155 -0.505143 -0.097142
-0.250155 -0.505143 -0.080142
-0.233155 -0.505143 -0.131142
-0.233155 -0.505143 -0.114142
-0.216155 -0.505143 -0.131142
-0.216155 -0.505143 -0.114142
-0.233155 -0.505143 -0.097142
-0.233155 -0.505143 -0.080142
-0.216155 -0.505143 -0.097142
-0.216155 -0.505143 -0.080142
-0.335155 -0.505143 -0.063142
-0.335155 -0.505143 -0.046142
-0.318155 -0.505143 -0.063142
-0.318155 -0.505143 -0.046142
-0.335155 -0.505143 -0.029142
-0.335155 -0.505143 -0.012142
-0.318155 -0.505143 -0.029142
-0.318155 -0.505143 -0.012142
-0.301155 -0.505143 -0.063142
-0.301155 -0.505143 -0.046142
-0.284155 -0.505143 -0.063142
-0.284155 -0.505143 -0.046142
-0.301155 -0.505143 -0.029142
-0.301155 -0.505143 -0.012142
-0.284155 -0.505143 -0.029142
-0.284155 -0.505143 -0.012142
-0.335155 -0.505143 0.004858
-0.335155 -0.505143 0.021858
-0.318155 -0.505143 0.004858
-0.318155 -0.505143 0.021858
-0.335155 -0.505143 0.038858
-0.335155 -0.505143 0.055858
-0.318155 -0.505143 0.038858
-0.318155 -0.505143 0.055858
-0.301155 -0.505143 0.004858
-0.301155 -0.505143 0.021858
-0.284155 -0.505143 0.004858
-0.284155 -0.505143 0.021858
-0.301155 -0.505143 0.038858
-0.301155 -0.505143 0.055858
-0.284155 -0.505143 0.038858
-0.284155 -0.505143 0.055858
-0.267155 -0.505143 -0.063142
-0.267155 -0.505143 -0.046142
-0.250155 -0.505143 -0.063142
-0.250155 -0.505143 -0.046142
-0.267155 -0.505143 -0.029142
-0.267155 -0.505143 -0.012142
-0.250155 -0.505143 -0.029142
-0.250155 -0.505143 -0.012142
-0.233155 -0.505143 -0.063142
-0.233155 -0.505143 -0.046142
-0.216155 -0.505143 -0.063142
-0.216155 -0.505143 -0.046142
-0.233155 -0.505143 -0.029142
-0.233155 -0.505143 -0.012142
-0.216155 -0.505143 -0.029142
-0.216155 -0.505143 -0.012142
-0.267155 -0.505143 0.004858
-0.267155 -0.505143 0.021858
-0.250155 -0.505143 0.004858
-0.250155 -0.505143 0.021858
-0.267155 -0.505143 0.038858
-0.267155 -0.505143 0.055858
-0.250155 -0.505143 0.038858
-0.250155 -0.505143 0.055858
-0.233155 -0.505143 0.004858
-0.233155 -0.505143 0.021858
-0.216155 -0.505143 0.004858
-0.216155 -0.505143 0.021858
-0.233155 -0.505143 0.038858
-0.233155 -0.505143 0.055858
-0.216155 -0.505143 0.038858
-0.216155 -0.505143 0.055858
-0.199155 -0.505143 -0.471142
-0.199155 -0.505143 -0.454142
-0.182155 -0.505143 -0.471142
-0.182155 -0.505143 -0.454142
-0.199155 -0.505143 -0.437142
-0.199155 -0.505143 -0.420142
-0.182155 -0.505143 -0.437142
-0.182155 -0.505143 -0.420142
-0.165156 -0.505143 -0.471142
-0.165156 -0.505143 -0.454142
-0.148155 -0.505143 -0.471142
-0.148155 -0.505143 -0.454142
-0.165156 -0.505143 -0.437142
-0.165156 -0.505143 -0.420142
-0.148155 -0.505143 -0.437142
-0.148155 -0.505143 -0.420142
-0.199155 -0.505143 -0.403142
-0.199155 -0.505143 -0.386142
-0.182155 -0.505143 -0.403142
-0.182155 -0.505143 -0.386142
-0.199155 -0.505143 -0.369142
-0.199155 -0.505143 -0.352142
-0.182155 -0.505143 -0.369142
-0.182155 -0.505143 -0.352142
-0.165156 -0.505143 -0.403142
-0.165156 -0.505143 -0.386142
-0.148155 -0.505143 -0.403142
-0.148155 -0.505143 -0.386142
-0.165156 -0.505143 -0.369142
-0.165156 -0.505143 -0.352142
-0.148155 -0.505143 -0.369142
-0.148155 -0.505143 -0.352142
-0.131155 -0.505143 -0.471142
-0.131155 -0.505143 -0.454142
-0.114155 -0.505143 -0.471142
-0.114155 -0.505143 -0.454142
-0.131155 -0.505143 -0.437142
-0.131155 -0.505143 -0.420142
-0.114155 -0.505143 -0.437142
-0.114155 -0.505143 -0.420142
-0.097155 -0.505143 -0.471142
-0.097155 -0.505143 -0.454142
-0.080155 -0.505143 -0.471142
-0.080155 -0.505143 -0.454142
-0.097155 -0.505143 -0.437142
-0.097155 -0.505143 -0.420142
-0.080155 -0.505143 -0.437142
-0.080155 -0.505143 -0.420142
-0.131155 -0.505143 -0.403142
-0.131155 -0.505143 -0.386142
-0.114155 -0.505143 -0.403142
-0.114155 -0.505143 -0.386142
-0.131155 -0.505143 -0.369142
-0.131155 -0.505143 -0.352142
-0.114155 -0.505143 -0.369142
-0.114155 -0.505143 -0.352142
-0.097155 -0.505143 -0.403142
-0.097155 -0.505143 -0.386142
-0.080155 -0.505143 -0.403142
-0.080155 -0.505143 -0.386142
-0.097155 -0.505143 -0.369142
-0.097155 -0.505143 -0.352142
-0.080155 -0.505143 -0.369142
-0.080155 -0.505143 -0.352142
-0.199155 -0.505143 -0.335142
-0.199155 -0.505143 -0.318142
-0.182155 -0.505143 -0.335142
-0.182155 -0.505143 -0.318142
-0.199155 -0.505143 -0.301142
-0.199155 -0.505143 -0.284142
-0.182155 -0.505143 -0.301142
-0.182155 -0.505143 -0.284142
-0.165156 -0.505143 -0.335142
-0.165156 -0.505143 -0.318142
-0.148155 -0.505143 -0.335142
-0.148155 -0.505143 -0.318142
-0.165156 -0.505143 -0.301142
-0.165156 -0.505143 -0.284142
-0.148155 -0.505143 -0.301142
-0.148155 -0.505143 -0.284142
-0.199155 -0.505143 -0.267142
-0.199155 -0.505143 -0.250142
-0.182155 -0.505143 -0.267142
-0.182155 -0.505143 -0.250142
-0.199155 -0.505143 -0.233142
-0.199155 -0.505143 -0.216142
-0.182155 -0.505143 -0.233142
-0.182155 -0.505143 -0.216142
-0.165156 -0.505143 -0.267142
-0.165156 -0.505143 -0.250142
-0.148155 -0.505143 -0.267142
-0.148155 -0.505143 -0.250142
-0.165156 -0.505143 -0.233142
-0.165156 -0.505143 -0.216142
-0.148155 -0.505143 -0.233142
-0.148155 -0.505143 -0.216142
-0.131155 -0.505143 -0.335142
-0.131155 -0.505143 -0.318142
-0.114155 -0.505143 -0.335142
-0.114155 -0.505143 -0.318142
-0.131155 -0.505143 -0.301142
-0.131155 -0.505143 -0.284142
-0.114155 -0.505143 -0.301142
-0.114155 -0.505143 -0.284142
-0.097155 -0.505143 -0.335142
-0.097155 -0.505143 -0.318142
-0.080155 -0.505143 -0.335142
-0.080155 -0.505143 -0.318142
-0.097155 -0.505143 -0.301142
-0.097155 -0.505143 -0.284142
-0.080155 -0.505143 -0.301142
-0.080155 -0.505143 -0.284142
-0.131155 -0.505143 -0.267142
-0.131155 -0.505143 -0.250142
-0.114155 -0.505143 -0.267142
-0.114155 -0.505143 -0.250142
-0.131155 -0.505143 -0.233142
-0.131155 -0.505143 -0.216142
-0.114155 -0.505143 -0.233142
-0.114155 -0.505143 -0.216142
-0.097155 -0.505143 -0.267142
-0.097155 -0.505143 -0.250142
-0.080155 -0.505143 -0.267142
-0.080155 -0.505143 -0.250142
-0.097155 -0.505143 -0.233142
-0.097155 -0.505143 -0.216142
-0.080155 -0.505143 -0.233142
-0.080155 -0.505143 -0.216142
-0.063155 -0.505143 -0.471142
-0.063155 -0.505143 -0.454142
-0.046155 -0.505143 -0.471142
-0.046155 -0.505143 -0.454142
-0.063155 -0.505143 -0.437142
-0.063155 -0.505143 -0.420142
-0.046155 -0.505143 -0.437142
-0.046155 -0.505143 -0.420142
-0.029155 -0.505143 -0.471142
-0.029155 -0.505143 -0.454142
-0.012155 -0.505143 -0.471142
-0.012155 -0.505143 -0.454142
-0.029155 -0.505143 -0.437142
-0.029155 -0.505143 -0.420142
-0.012155 -0.505143 -0.437142
-0.012155 -0.505143 -0.420142
-0.063155 -0.505143 -0.403142
-0.063155 -0.505143 -0.386142
-0.046155 -0.505143 -0.403142
-0.046155 -0.505143 -0.386142
-0.063155 -0.505143 -0.369142
-0.063155 -0.505143 -0.352142
-0.046155 -0.505143 -0.369142
-0.046155 -0.505143 -0.352142
-0.029155 -0.505143 -0.403142
-0.029155 -0.505143 -0.386142
-0.012155 -0.505143 -0.403142
-0.012155 -0.505143 -0.386142
-0.029155 -0.505143 -0.369142
-0.029155 -0.505143 -0.352142
-0.012155 -0.505143 -0.369142
-0.012155 -0.505143 -0.352142
0.004845 -0.505143 -0.471142
0.004845 -0.505143 -0.454142
0.021844 -0.505143 -0.471142
0.021844 -0.505143 -0.454142
0.004845 -0.505143 -0.437142
0.004845 -0.505143 -0.420142
0.021844 -0.505143 -0.437142
0.021844 -0.505143 -0.420142
0.038844 -0.505143 -0.471142
0.038844 -0.505143 -0.454142
0.055845 -0.505143 -0.471142
0.055845 -0.505143 -0.454142
0.038844 -0.505143 -0.437142
0.038844 -0.505143 -0.420142
0.055845 -0.505143 -0.437142
0.055845 -0.505143 -0.420142
0.004845 -0.505143 -0.403142
0.004845 -0.505143 -0.386142
0.021844 -0.505143 -0.403142
0.021844 -0.505143 -0.386142
0.004845 -0.505143 -0.369142
0.004845 -0.505143 -0.352142
0.021844 -0.505143 -0.369142
0.021844 -0.505143 -0.352142
0.038844 -0.505143 -0.403142
0.038844 -0.505143 -0.386142
0.055845 -0.505143 -0.403142
0.055845 -0.505143 -0.386142
0.038844 -0.505143 -0.369142
0.038844 -0.505143 -0.352142
0.055845 -0.505143 -0.369142
0.055845 -0.505143 -0.352142
-0.063155 -0.505143 -0.335142
-0.063155 -0.505143 -0.318142
-0.046155 -0.505143 -0.335142
-0.046155 -0.505143 -0.318142
-0.063155 -0.505143 -0.301142
-0.063155 -0.505143 -0.284142
-0.046155 -0.505143 -0.301142
-0.046155 -0.505143 -0.284142
-0.029155 -0.505143 -0.335142
-0.029155 -0.505143 -0.318142
-0.012155 -0.505143 -0.335142
-0.012155 -0.505143 -0.318142
-0.029155 -0.505143 -0.301142
-0.029155 -0.505143 -0.284142
-0.012155 -0.505143 -0.301142
-0.012155 -0.505143 -0.284142
-0.063155 -0.505143 -0.267142
-0.063155 -0.505143 -0.250142
-0.046155 -0.505143 -0.267142
-0.046155 -0.505143 -0.250142
-0.063155 -0.505143 -0.233142
-0.063155 -0.505143 -0.216142
-0.046155 -0.505143 -0.233142
-0.046155 -0.505143 -0.216142
-0.029155 -0.505143 -0.267142
-0.029155 -0.505143 -0.250142
-0.012155 -0.505143 -0.267142
-0.012155 -0.505143 -0.250142
-0.029155 -0.505143 -0.233142
-0.029155 -0.505143 -0.216142
-0.012155 -0.505143 -0.233142
-0.012155 -0.505143 -0.216142
0.004845 -0.505143 -0.335142
0.004845 -0.505143 -0.318142
0.021844 -0.505143 -0.335142
0.021844 -0.505143 -0.318142
0.004845 -0.505143 -0.301142
0.004845 -0.505143 -0.284142
0.021844 -0.505143 -0.301142
0.021844 -0.505143 -0.284142
0.038844 -0.505143 -0.335142
0.038844 -0.505143 -0.318142
0.055845 -0.505143 -0.335142
0.055845 -0.505143 -0.318142
0.038844 -0.505143 -0.301142
0.038844 -0.505143 -0.284142
0.055845 -0.505143 -0.301142
0.055845 -0.505143 -0.284142
0.004845 -0.505143 -0.267142
0.004845 -0.505143 -0.250142
0.021844 -0.505143 -0.267142
0.021844 -0.505143 -0.250142
0.004845 -0.505143 -0.233142
0.004845 -0.505143 -0.216142
