ply
format ascii 1.0
element vertex 1648
property float x
property float y
property float z
end_header
-0.496655 -0.171374 -0.256226
-0.496655 -0.171374 -0.242084
-0.496655 -0.171374 -0.227941
-0.496655 -0.171374 -0.213799
-0.496655 -0.171374 -0.199657
-0.496655 -0.171374 -0.185515
-0.496655 -0.171374 -0.171373
-0.496655 -0.171374 -0.157231
-0.496655 -0.171374 -0.143089
-0.496655 -0.171374 -0.128946
-0.496655 -0.171374 -0.114804
-0.496655 -0.171374 -0.100662
-0.496655 -0.171374 -0.086520
-0.496655 -0.171374 -0.072378
-0.496655 -0.171374 -0.058236
-0.496655 -0.171374 -0.044094
-0.496655 -0.171374 -0.029952
-0.496655 -0.171374 -0.015809
-0.496655 -0.171374 -0.001667
-0.496655 -0.171374 0.012475
-0.496655 -0.171374 0.026617
-0.496655 -0.171374 0.040759
-0.496655 -0.171374 0.054901
-0.496655 -0.171374 0.069043
-0.496655 -0.171374 0.083186
-0.496655 -0.171374 0.097328
-0.496655 -0.171374 0.111470
-0.496655 -0.171374 0.125612
-0.496655 -0.171374 0.139754
-0.496655 -0.171374 0.153896
-0.496655 -0.171374 0.168038
-0.496655 -0.171374 0.182181
-0.496655 -0.171374 0.196323
-0.496655 -0.171374 0.210465
-0.496655 -0.171374 0.224607
-0.496655 -0.171374 0.238749
-0.496655 -0.171374 0.252891
-0.496655 -0.171374 0.267033
-0.496655 -0.171374 0.281175
-0.496655 -0.171374 0.295318
-0.496655 -0.171374 0.309460
-0.496655 -0.171374 0.323602
-0.496655 -0.171374 0.337744
-0.496655 -0.171374 0.351886
-0.496655 -0.171374 0.366028
-0.496655 -0.171374 0.380170
-0.496655 -0.171374 0.394313
-0.496655 -0.171374 0.408455
-0.496655 -0.171374 0.422597
-0.496655 -0.171374 0.436739
-0.496655 -0.171374 0.450881
-0.496655 -0.171374 0.465023
-0.496655 -0.171374 0.479165
-0.496655 -0.171374 0.493307
-0.496655 -0.157232 -0.496642
-0.496655 -0.157232 -0.482500
-0.496655 -0.157232 -0.468358
-0.496655 -0.157232 -0.454216
-0.496655 -0.157232 -0.440073
-0.496655 -0.157232 -0.425931
-0.496655 -0.157232 -0.411789
-0.496655 -0.157232 -0.397647
-0.496655 -0.157232 -0.383505
-0.496655 -0.157232 -0.369363
-0.496655 -0.157232 -0.355221
-0.496655 -0.157232 -0.341079
-0.496655 -0.157232 -0.326936
-0.496655 -0.157232 -0.312794
-0.496655 -0.157232 -0.298652
-0.496655 -0.157232 -0.284510
-0.496655 -0.157232 -0.270368
-0.496655 -0.157232 -0.256226
-0.496655 -0.157232 -0.242084
-0.496655 -0.157232 -0.227941
-0.496655 -0.157232 -0.213799
-0.496655 -0.157232 -0.199657
-0.496655 -0.157232 -0.185515
-0.496655 -0.157232 -0.171373
-0.496655 -0.157232 -0.157231
-0.496655 -0.157232 -0.143089
-0.496655 -0.157232 -0.128946
-0.496655 -0.157232 -0.114804
-0.496655 -0.157232 -0.100662
-0.496655 -0.157232 -0.086520
-0.496655 -0.157232 -0.072378
-0.496655 -0.157232 -0.058236
-0.496655 -0.157232 -0.044094
-0.496655 -0.157232 -0.029952
-0.496655 -0.157232 -0.015809
-0.496655 -0.157232 -0.001667
-0.496655 -0.157232 0.012475
-0.496655 -0.157232 0.026617
-0.496655 -0.157232 0.040759
-0.496655 -0.157232 0.054901
-0.496655 -0.157232 0.069043
-0.496655 -0.157232 0.083186
-0.496655 -0.157232 0.097328
-0.496655 -0.157232 0.111470
-0.496655 -0.157232 0.125612
-0.496655 -0.157232 0.139754
-0.496655 -0.157232 0.153896
-0.496655 -0.157232 0.168038
-0.496655 -0.157232 0.182181
-0.496655 -0.157232 0.196323
-0.496655 -0.157232 0.210465
-0.496655 -0.157232 0.224607
-0.496655 -0.157232 0.238749
-0.496655 -0.157232 0.252891
-0.496655 -0.157232 0.267033
-0.496655 -0.157232 0.281175
-0.496655 -0.157232 0.295318
-0.496655 -0.157232 0.309460
-0.496655 -0.157232 0.323602
-0.496655 -0.157232 0.337744
-0.496655 -0.157232 0.351886
-0.496655 -0.157232 0.366028
-0.496655 -0.157232 0.380170
-0.496655 -0.157232 0.394313
-0.496655 -0.157232 0.408455
-0.496655 -0.157232 0.422597
-0.496655 -0.157232 0.436739
-0.496655 -0.157232 0.450881
-0.496655 -0.157232 0.465023
-0.496655 -0.157232 0.479165
-0.496655 -0.157232 0.493307
-0.496655 -0.143090 -0.496642
-0.496655 -0.143090 -0.482500
-0.496655 -0.143090 -0.468358
-0.496655 -0.143090 -0.454216
-0.496655 -0.143090 -0.440073
-0.496655 -0.143090 -0.425931
-0.496655 -0.143090 -0.411789
-0.496655 -0.143090 -0.397647
-0.496655 -0.143090 -0.383505
-0.496655 -0.143090 -0.369363
-0.496655 -0.143090 -0.355221
-0.496655 -0.143090 -0.341079
-0.496655 -0.143090 -0.326936
-0.496655 -0.143090 -0.312794
-0.496655 -0.143090 -0.298652
-0.496655 -0.143090 -0.284510
-0.496655 -0.143090 -0.270368
-0.496655 -0.143090 -0.256226
-0.496655 -0.143090 -0.242084
-0.496655 -0.143090 -0.227941
-0.496655 -0.143090 -0.213799
-0.496655 -0.143090 -0.199657
-0.496655 -0.143090 -0.185515
-0.496655 -0.143090 -0.171373
-0.496655 -0.143090 -0.157231
-0.496655 -0.143090 -0.143089
-0.496655 -0.143090 -0.128946
-0.496655 -0.143090 -0.114804
-0.496655 -0.143090 -0.100662
-0.496655 -0.143090 -0.086520
-0.496655 -0.143090 -0.072378
-0.496655 -0.143090 -0.058236
-0.496655 -0.143090 -0.044094
-0.496655 -0.143090 -0.029952
-0.496655 -0.143090 -0.015809
-0.496655 -0.143090 -0.001667
-0.496655 -0.143090 0.012475
-0.496655 -0.143090 0.026617
-0.496655 -0.143090 0.040759
-0.496655 -0.143090 0.054901
-0.496655 -0.143090 0.069043
-0.496655 -0.143090 0.083186
-0.496655 -0.143090 0.097328
-0.496655 -0.143090 0.111470
-0.496655 -0.143090 0.125612
-0.496655 -0.143090 0.139754
-0.496655 -0.143090 0.153896
-0.496655 -0.143090 0.168038
-0.496655 -0.143090 0.182181
-0.496655 -0.143090 0.196323
-0.496655 -0.143090 0.210465
-0.496655 -0.143090 0.224607
-0.496655 -0.143090 0.238749
-0.496655 -0.143090 0.252891
-0.496655 -0.143090 0.267033
-0.496655 -0.143090 0.281175
-0.496655 -0.143090 0.295318
-0.496655 -0.143090 0.309460
-0.496655 -0.143090 0.323602
-0.496655 -0.143090 0.337744
-0.496655 -0.143090 0.351886
-0.496655 -0.143090 0.366028
-0.496655 -0.143090 0.380170
-0.496655 -0.143090 0.394313
-0.496655 -0.143090 0.408455
-0.496655 -0.143090 0.422597
-0.496655 -0.143090 0.436739
-0.496655 -0.143090 0.450881
-0.496655 -0.143090 0.465023
-0.496655 -0.143090 0.479165
-0.496655 -0.143090 0.493307
-0.496655 -0.128947 -0.496642
-0.496655 -0.128947 -0.482500
-0.496655 -0.128947 -0.468358
-0.496655 -0.128947 -0.454216
-0.496655 -0.128947 -0.440073
-0.496655 -0.128947 -0.425931
-0.496655 -0.128947 -0.411789
-0.496655 -0.128947 -0.397647
-0.496655 -0.128947 -0.383505
-0.496655 -0.128947 -0.369363
-0.496655 -0.128947 -0.355221
-0.496655 -0.128947 -0.341079
-0.496655 -0.128947 -0.326936
-0.496655 -0.128947 -0.312794
-0.496655 -0.128947 -0.298652
-0.496655 -0.128947 -0.284510
-0.496655 -0.128947 -0.270368
-0.496655 -0.128947 -0.256226
-0.496655 -0.128947 -0.242084
-0.496655 -0.128947 -0.227941
-0.496655 -0.128947 -0.213799
-0.496655 -0.128947 -0.199657
-0.496655 -0.128947 -0.185515
-0.496655 -0.128947 -0.171373
-0.496655 -0.128947 -0.157231
-0.496655 -0.128947 -0.143089
-0.496655 -0.128947 -0.128946
-0.496655 -0.128947 -0.114804
-0.496655 -0.128947 -0.100662
-0.496655 -0.128947 -0.086520
-0.496655 -0.128947 -0.072378
-0.496655 -0.128947 -0.058236
-0.496655 -0.128947 -0.044094
-0.496655 -0.128947 -0.029952
-0.496655 -0.128947 -0.015809
-0.496655 -0.128947 -0.001667
-0.496655 -0.128947 0.012475
-0.496655 -0.128947 0.026617
-0.496655 -0.128947 0.040759
-0.496655 -0.128947 0.054901
-0.496655 -0.128947 0.069043
-0.496655 -0.128947 0.083186
-0.496655 -0.128947 0.097328
-0.496655 -0.128947 0.111470
-0.496655 -0.128947 0.125612
-0.496655 -0.128947 0.139754
-0.496655 -0.128947 0.153896
-0.496655 -0.128947 0.168038
-0.496655 -0.128947 0.182181
-0.496655 -0.128947 0.196323
-0.496655 -0.128947 0.210465
-0.496655 -0.128947 0.224607
-0.496655 -0.128947 0.238749
-0.496655 -0.128947 0.252891
-0.496655 -0.128947 0.267033
-0.496655 -0.128947 0.281175
-0.496655 -0.128947 0.295318
-0.496655 -0.128947 0.309460
-0.496655 -0.128947 0.323602
-0.496655 -0.128947 0.337744
-0.496655 -0.128947 0.351886
-0.496655 -0.128947 0.366028
-0.496655 -0.128947 0.380170
-0.496655 -0.128947 0.394313
-0.496655 -0.128947 0.408455
-0.496655 -0.128947 0.422597
-0.496655 -0.128947 0.436739
-0.496655 -0.128947 0.450881
-0.496655 -0.128947 0.465023
-0.496655 -0.128947 0.479165
-0.496655 -0.128947 0.493307
-0.496655 -0.114805 -0.496642
-0.496655 -0.114805 -0.482500
-0.496655 -0.114805 -0.468358
-0.496655 -0.114805 -0.454216
-0.496655 -0.114805 -0.440073
-0.496655 -0.114805 -0.425931
-0.496655 -0.114805 -0.411789
-0.496655 -0.114805 -0.397647
-0.496655 -0.114805 -0.383505
-0.496655 -0.114805 -0.369363
-0.496655 -0.114805 -0.355221
-0.496655 -0.114805 -0.341079
-0.496655 -0.114805 -0.326936
-0.496655 -0.114805 -0.312794
-0.496655 -0.114805 -0.298652
-0.496655 -0.114805 -0.284510
-0.496655 -0.114805 -0.270368
-0.496655 -0.114805 -0.256226
-0.496655 -0.114805 -0.242084
-0.496655 -0.114805 -0.227941
-0.496655 -0.114805 -0.213799
-0.496655 -0.114805 -0.199657
-0.496655 -0.114805 -0.185515
-0.496655 -0.114805 -0.171373
-0.496655 -0.114805 -0.157231
-0.496655 -0.114805 -0.143089
-0.496655 -0.114805 -0.128946
-0.496655 -0.114805 -0.114804
-0.496655 -0.114805 -0.100662
-0.496655 -0.114805 -0.086520
-0.496655 -0.114805 -0.072378
-0.496655 -0.114805 -0.058236
-0.496655 -0.114805 -0.044094
-0.496655 -0.114805 -0.029952
-0.496655 -0.114805 -0.015809
-0.496655 -0.114805 -0.001667
-0.496655 -0.114805 0.012475
-0.496655 -0.114805 0.026617
-0.496655 -0.114805 0.040759
-0.496655 -0.114805 0.054901
-0.496655 -0.114805 0.069043
-0.496655 -0.114805 0.083186
-0.496655 -0.114805 0.097328
-0.496655 -0.114805 0.111470
-0.496655 -0.114805 0.125612
-0.496655 -0.114805 0.139754
-0.496655 -0.114805 0.153896
-0.496655 -0.114805 0.168038
-0.496655 -0.114805 0.182181
-0.496655 -0.114805 0.196323
-0.496655 -0.114805 0.210465
-0.496655 -0.114805 0.224607
-0.496655 -0.114805 0.238749
-0.496655 -0.114805 0.252891
-0.496655 -0.114805 0.267033
-0.496655 -0.114805 0.281175
-0.496655 -0.114805 0.295318
-0.496655 -0.114805 0.309460
-0.496655 -0.114805 0.323602
-0.496655 -0.114805 0.337744
-0.496655 -0.114805 0.351886
-0.496655 -0.114805 0.366028
-0.496655 -0.114805 0.380170
-0.496655 -0.114805 0.394313
-0.496655 -0.114805 0.408455
-0.496655 -0.114805 0.422597
-0.496655 -0.114805 0.436739
-0.496655 -0.114805 0.450881
-0.496655 -0.114805 0.465023
-0.496655 -0.114805 0.479165
-0.496655 -0.114805 0.493307
-0.496655 -0.100663 -0.496642
-0.496655 -0.100663 -0.482500
-0.496655 -0.100663 -0.468358
-0.496655 -0.100663 -0.454216
-0.496655 -0.100663 -0.440073
-0.496655 -0.100663 -0.425931
-0.496655 -0.100663 -0.411789
-0.496655 -0.100663 -0.397647
-0.496655 -0.100663 -0.383505
-0.496655 -0.100663 -0.369363
-0.496655 -0.100663 -0.355221
-0.496655 -0.100663 -0.341079
-0.496655 -0.100663 -0.326936
-0.496655 -0.100663 -0.312794
-0.496655 -0.100663 -0.298652
-0.496655 -0.100663 -0.284510
-0.496655 -0.100663 -0.270368
-0.496655 -0.100663 -0.256226
-0.496655 -0.100663 -0.242084
-0.496655 -0.100663 -0.227941
-0.496655 -0.100663 -0.213799
-0.496655 -0.100663 -0.199657
-0.496655 -0.100663 -0.185515
-0.496655 -0.100663 -0.171373
-0.496655 -0.100663 -0.157231
-0.496655 -0.100663 -0.143089
-0.496655 -0.100663 -0.128946
-0.496655 -0.100663 -0.114804
-0.496655 -0.100663 -0.100662
-0.496655 -0.100663 -0.086520
-0.496655 -0.100663 -0.072378
-0.496655 -0.100663 -0.058236
-0.496655 -0.100663 -0.044094
-0.496655 -0.100663 -0.029952
-0.496655 -0.100663 -0.015809
-0.496655 -0.100663 -0.001667
-0.496655 -0.100663 0.012475
-0.496655 -0.100663 0.026617
-0.496655 -0.100663 0.040759
-0.496655 -0.100663 0.054901
-0.496655 -0.100663 0.069043
-0.496655 -0.100663 0.083186
-0.496655 -0.100663 0.097328
-0.496655 -0.100663 0.111470
-0.496655 -0.100663 0.125612
-0.496655 -0.100663 0.139754
-0.496655 -0.100663 0.153896
-0.496655 -0.100663 0.168038
-0.496655 -0.100663 0.182181
-0.496655 -0.100663 0.196323
-0.496655 -0.100663 0.210465
-0.496655 -0.100663 0.224607
-0.496655 -0.100663 0.238749
-0.496655 -0.100663 0.252891
-0.496655 -0.100663 0.267033
-0.496655 -0.100663 0.281175
-0.496655 -0.100663 0.295318
-0.496655 -0.100663 0.309460
-0.496655 -0.100663 0.323602
-0.496655 -0.100663 0.337744
-0.496655 -0.100663 0.351886
-0.496655 -0.100663 0.366028
-0.496655 -0.100663 0.380170
-0.496655 -0.100663 0.394313
-0.496655 -0.100663 0.408455
-0.496655 -0.100663 0.422597
-0.496655 -0.100663 0.436739
-0.496655 -0.100663 0.450881
-0.496655 -0.100663 0.465023
-0.496655 -0.100663 0.479165
-0.496655 -0.100663 0.493307
-0.496655 -0.086521 -0.496642
-0.496655 -0.086521 -0.482500
-0.496655 -0.086521 -0.468358
-0.496655 -0.086521 -0.454216
-0.496655 -0.086521 -0.440073
-0.496655 -0.086521 -0.425931
-0.496655 -0.086521 -0.411789
-0.496655 -0.086521 -0.397647
-0.496655 -0.086521 -0.383505
-0.496655 -0.086521 -0.369363
-0.496655 -0.086521 -0.355221
-0.496655 -0.086521 -0.341079
-0.496655 -0.086521 -0.326936
-0.496655 -0.086521 -0.312794
-0.496655 -0.086521 -0.298652
-0.496655 -0.086521 -0.284510
-0.496655 -0.086521 -0.270368
-0.496655 -0.086521 -0.256226
-0.496655 -0.086521 -0.242084
-0.496655 -0.086521 -0.227941
-0.496655 -0.086521 -0.213799
-0.496655 -0.086521 -0.199657
-0.496655 -0.086521 -0.185515
-0.496655 -0.086521 -0.171373
-0.496655 -0.086521 -0.157231
-0.496655 -0.086521 -0.143089
-0.496655 -0.086521 -0.128946
-0.496655 -0.086521 -0.114804
-0.496655 -0.086521 -0.100662
-0.496655 -0.086521 -0.086520
-0.496655 -0.086521 -0.072378
-0.496655 -0.086521 -0.058236
-0.496655 -0.086521 -0.044094
-0.496655 -0.086521 -0.029952
-0.496655 -0.086521 -0.015809
-0.496655 -0.086521 -0.001667
-0.496655 -0.086521 0.012475
-0.496655 -0.086521 0.026617
-0.496655 -0.086521 0.040759
-0.496655 -0.086521 0.054901
-0.496655 -0.086521 0.069043
-0.496655 -0.086521 0.083186
-0.496655 -0.086521 0.097328
-0.496655 -0.086521 0.111470
-0.496655 -0.086521 0.125612
-0.496655 -0.086521 0.139754
-0.496655 -0.086521 0.153896
-0.496655 -0.086521 0.168038
-0.496655 -0.086521 0.182181
-0.496655 -0.086521 0.196323
-0.496655 -0.086521 0.210465
-0.496655 -0.086521 0.224607
-0.496655 -0.086521 0.238749
-0.496655 -0.086521 0.252891
-0.496655 -0.086521 0.267033
-0.496655 -0.086521 0.281175
-0.496655 -0.086521 0.295318
-0.496655 -0.086521 0.309460
-0.496655 -0.086521 0.323602
-0.496655 -0.086521 0.337744
-0.496655 -0.086521 0.351886
-0.496655 -0.086521 0.366028
-0.496655 -0.086521 0.380170
-0.496655 -0.086521 0.394313
-0.496655 -0.086521 0.408455
-0.496655 -0.086521 0.422597
-0.496655 -0.086521 0.436739
-0.496655 -0.086521 0.450881
-0.496655 -0.086521 0.465023
-0.496655 -0.086521 0.479165
-0.496655 -0.086521 0.493307
-0.496655 -0.072379 -0.496642
-0.496655 -0.072379 -0.482500
-0.496655 -0.072379 -0.468358
-0.496655 -0.072379 -0.454216
-0.496655 -0.072379 -0.440073
-0.496655 -0.072379 -0.425931
-0.496655 -0.072379 -0.411789
-0.496655 -0.072379 -0.397647
-0.496655 -0.072379 -0.383505
-0.496655 -0.072379 -0.369363
-0.496655 -0.072379 -0.355221
-0.496655 -0.072379 -0.341079
-0.496655 -0.072379 -0.326936
-0.496655 -0.072379 -0.312794
-0.496655 -0.072379 -0.298652
-0.496655 -0.072379 -0.284510
-0.496655 -0.072379 -0.270368
-0.496655 -0.072379 -0.256226
-0.496655 -0.072379 -0.242084
-0.496655 -0.072379 -0.227941
-0.496655 -0.072379 -0.213799
-0.496655 -0.072379 -0.199657
-0.496655 -0.072379 -0.185515
-0.496655 -0.072379 -0.171373
-0.496655 -0.072379 -0.157231
-0.496655 -0.072379 -0.143089
-0.496655 -0.072379 -0.128946
-0.496655 -0.072379 -0.114804
-0.496655 -0.072379 -0.100662
-0.496655 -0.072379 -0.086520
-0.496655 -0.072379 -0.072378
-0.496655 -0.072379 -0.058236
-0.496655 -0.072379 -0.044094
-0.496655 -0.072379 -0.029952
-0.496655 -0.072379 -0.015809
-0.496655 -0.072379 -0.001667
-0.496655 -0.072379 0.012475
-0.496655 -0.072379 0.026617
-0.496655 -0.072379 0.040759
-0.496655 -0.072379 0.054901
-0.496655 -0.072379 0.069043
-0.496655 -0.072379 0.083186
-0.496655 -0.072379 0.097328
-0.496655 -0.072379 0.111470
-0.496655 -0.072379 0.125612
-0.496655 -0.072379 0.139754
-0.496655 -0.072379 0.153896
-0.496655 -0.072379 0.168038
-0.496655 -0.072379 0.182181
-0.496655 -0.072379 0.196323
-0.496655 -0.072379 0.210465
-0.496655 -0.072379 0.224607
-0.496655 -0.072379 0.238749
-0.496655 -0.072379 0.252891
-0.496655 -0.072379 0.267033
-0.496655 -0.072379 0.281175
-0.496655 -0.072379 0.295318
-0.496655 -0.072379 0.309460
-0.496655 -0.072379 0.323602
-0.496655 -0.072379 0.337744
-0.496655 -0.072379 0.351886
-0.496655 -0.072379 0.366028
-0.496655 -0.072379 0.380170
-0.496655 -0.072379 0.394313
-0.496655 -0.072379 0.408455
-0.496655 -0.072379 0.422597
-0.496655 -0.072379 0.436739
-0.496655 -0.072379 0.450881
-0.496655 -0.072379 0.465023
-0.496655 -0.072379 0.479165
-0.496655 -0.072379 0.493307
-0.496655 -0.058237 -0.496642
-0.496655 -0.058237 -0.482500
-0.496655 -0.058237 -0.468358
-0.496655 -0.058237 -0.454216
-0.496655 -0.058237 -0.440073
-0.496655 -0.058237 -0.425931
-0.496655 -0.058237 -0.411789
-0.496655 -0.058237 -0.397647
-0.496655 -0.058237 -0.383505
-0.496655 -0.058237 -0.369363
-0.496655 -0.058237 -0.355221
-0.496655 -0.058237 -0.341079
-0.496655 -0.058237 -0.326936
-0.496655 -0.058237 -0.312794
-0.496655 -0.058237 -0.298652
-0.496655 -0.058237 -0.284510
-0.496655 -0.058237 -0.270368
-0.496655 -0.058237 -0.256226
-0.496655 -0.058237 -0.242084
-0.496655 -0.058237 -0.227941
-0.496655 -0.058237 -0.213799
-0.496655 -0.058237 -0.199657
-0.496655 -0.058237 -0.185515
-0.496655 -0.058237 -0.171373
-0.496655 -0.058237 -0.157231
-0.496655 -0.058237 -0.143089
-0.496655 -0.058237 -0.128946
-0.496655 -0.058237 -0.114804
-0.496655 -0.058237 -0.100662
-0.496655 -0.058237 -0.086520
-0.496655 -0.058237 -0.072378
-0.496655 -0.058237 -0.058236
-0.496655 -0.058237 -0.044094
-0.496655 -0.058237 -0.029952
-0.496655 -0.058237 -0.015809
-0.496655 -0.058237 -0.001667
-0.496655 -0.058237 0.012475
-0.496655 -0.058237 0.026617
-0.496655 -0.058237 0.040759
-0.496655 -0.058237 0.054901
-0.496655 -0.058237 0.069043
-0.496655 -0.058237 0.083186
-0.496655 -0.058237 0.097328
-0.496655 -0.058237 0.111470
-0.496655 -0.058237 0.125612
-0.496655 -0.058237 0.139754
-0.496655 -0.058237 0.153896
-0.496655 -0.058237 0.168038
-0.496655 -0.058237 0.182181
-0.496655 -0.058237 0.196323
-0.496655 -0.058237 0.210465
-0.496655 -0.058237 0.224607
-0.496655 -0.058237 0.238749
-0.496655 -0.058237 0.252891
-0.496655 -0.058237 0.267033
-0.496655 -0.058237 0.281175
-0.496655 -0.058237 0.295318
-0.496655 -0.058237 0.309460
-0.496655 -0.058237 0.323602
-0.496655 -0.058237 0.337744
-0.496655 -0.058237 0.351886
-0.496655 -0.058237 0.366028
-0.496655 -0.058237 0.380170
-0.496655 -0.058237 0.394313
-0.496655 -0.058237 0.408455
-0.496655 -0.058237 0.422597
-0.496655 -0.058237 0.436739
-0.496655 -0.058237 0.450881
-0.496655 -0.058237 0.465023
-0.496655 -0.058237 0.479165
-0.496655 -0.058237 0.493307
-0.496655 -0.044095 -0.496642
-0.496655 -0.044095 -0.482500
-0.496655 -0.044095 -0.468358
-0.496655 -0.044095 -0.454216
-0.496655 -0.044095 -0.440073
-0.496655 -0.044095 -0.425931
-0.496655 -0.044095 -0.411789
-0.496655 -0.044095 -0.397647
-0.496655 -0.044095 -0.383505
-0.496655 -0.044095 -0.369363
-0.496655 -0.044095 -0.355221
-0.496655 -0.044095 -0.341079
-0.496655 -0.044095 -0.326936
-0.496655 -0.044095 -0.312794
-0.496655 -0.044095 -0.298652
-0.496655 -0.044095 -0.284510
-0.496655 -0.044095 -0.270368
-0.496655 -0.044095 -0.256226
-0.496655 -0.044095 -0.242084
-0.496655 -0.044095 -0.227941
-0.496655 -0.044095 -0.213799
-0.496655 -0.044095 -0.199657
-0.496655 -0.044095 -0.185515
-0.496655 -0.044095 -0.171373
-0.496655 -0.044095 -0.157231
-0.496655 -0.044095 -0.143089
-0.496655 -0.044095 -0.128946
-0.496655 -0.044095 -0.114804
-0.496655 -0.044095 -0.100662
-0.496655 -0.044095 -0.086520
-0.496655 -0.044095 -0.072378
-0.496655 -0.044095 -0.058236
-0.496655 -0.044095 -0.044094
-0.496655 -0.044095 -0.029952
-0.496655 -0.044095 -0.015809
-0.496655 -0.044095 -0.001667
-0.496655 -0.044095 0.012475
-0.496655 -0.044095 0.026617
-0.496655 -0.044095 0.040759
-0.496655 -0.044095 0.054901
-0.496655 -0.044095 0.069043
-0.496655 -0.044095 0.083186
-0.496655 -0.044095 0.097328
-0.496655 -0.044095 0.111470
-0.496655 -0.044095 0.125612
-0.496655 -0.044095 0.139754
-0.496655 -0.044095 0.153896
-0.496655 -0.044095 0.168038
-0.496655 -0.044095 0.182181
-0.496655 -0.044095 0.196323
-0.496655 -0.044095 0.210465
-0.496655 -0.044095 0.224607
-0.496655 -0.044095 0.238749
-0.496655 -0.044095 0.252891
-0.496655 -0.044095 0.267033
-0.496655 -0.044095 0.281175
-0.496655 -0.044095 0.295318
-0.496655 -0.044095 0.309460
-0.496655 -0.044095 0.323602
-0.496655 -0.044095 0.337744
-0.496655 -0.044095 0.351886
-0.496655 -0.044095 0.366028
-0.496655 -0.044095 0.380170
-0.496655 -0.044095 0.394313
-0.496655 -0.044095 0.408455
-0.496655 -0.044095 0.422597
-0.496655 -0.044095 0.436739
-0.496655 -0.044095 0.450881
-0.496655 -0.044095 0.465023
-0.496655 -0.044095 0.479165
-0.496655 -0.044095 0.493307
-0.496655 -0.029953 -0.496642
-0.496655 -0.029953 -0.482500
-0.496655 -0.029953 -0.468358
-0.496655 -0.029953 -0.454216
-0.496655 -0.029953 -0.440073
-0.496655 -0.029953 -0.425931
-0.496655 -0.029953 -0.411789
-0.496655 -0.029953 -0.397647
-0.496655 -0.029953 -0.383505
-0.496655 -0.029953 -0.369363
-0.496655 -0.029953 -0.355221
-0.496655 -0.029953 -0.341079
-0.496655 -0.029953 -0.326936
-0.496655 -0.029953 -0.312794
-0.496655 -0.029953 -0.298652
-0.496655 -0.029953 -0.284510
-0.496655 -0.029953 -0.270368
-0.496655 -0.029953 -0.256226
-0.496655 -0.029953 -0.242084
-0.496655 -0.029953 -0.227941
-0.496655 -0.029953 -0.213799
-0.496655 -0.029953 -0.199657
-0.496655 -0.029953 -0.185515
-0.496655 -0.029953 -0.171373
-0.496655 -0.029953 -0.157231
-0.496655 -0.029953 -0.143089
-0.496655 -0.029953 -0.128946
-0.496655 -0.029953 -0.114804
-0.496655 -0.029953 -0.100662
-0.496655 -0.029953 -0.086520
-0.496655 -0.029953 -0.072378
-0.496655 -0.029953 -0.058236
-0.496655 -0.029953 -0.044094
-0.496655 -0.029953 -0.029952
-0.496655 -0.029953 -0.015809
-0.496655 -0.029953 -0.001667
-0.496655 -0.029953 0.012475
-0.496655 -0.029953 0.026617
-0.496655 -0.029953 0.040759
-0.496655 -0.029953 0.054901
-0.496655 -0.029953 0.069043
-0.496655 -0.029953 0.083186
-0.496655 -0.029953 0.097328
-0.496655 -0.029953 0.111470
-0.496655 -0.029953 0.125612
-0.496655 -0.029953 0.139754
-0.496655 -0.029953 0.153896
-0.496655 -0.029953 0.168038
-0.496655 -0.029953 0.182181
-0.496655 -0.029953 0.196323
-0.496655 -0.029953 0.210465
-0.496655 -0.029953 0.224607
-0.496655 -0.029953 0.238749
-0.496655 -0.029953 0.252891
-0.496655 -0.029953 0.267033
-0.496655 -0.029953 0.281175
-0.496655 -0.029953 0.295318
-0.496655 -0.029953 0.309460
-0.496655 -0.029953 0.323602
-0.496655 -0.029953 0.337744
-0.496655 -0.029953 0.351886
-0.496655 -0.029953 0.366028
-0.496655 -0.029953 0.380170
-0.496655 -0.029953 0.394313
-0.496655 -0.029953 0.408455
-0.496655 -0.029953 0.422597
-0.496655 -0.029953 0.436739
-0.496655 -0.029953 0.450881
-0.496655 -0.029953 0.465023
-0.496655 -0.029953 0.479165
-0.496655 -0.029953 0.493307
-0.496655 -0.015810 -0.496642
-0.496655 -0.015810 -0.482500
-0.496655 -0.015810 -0.468358
-0.496655 -0.015810 -0.454216
-0.496655 -0.015810 -0.440073
-0.496655 -0.015810 -0.425931
-0.496655 -0.015810 -0.411789
-0.496655 -0.015810 -0.397647
-0.496655 -0.015810 -0.383505
-0.496655 -0.015810 -0.369363
-0.496655 -0.015810 -0.355221
-0.496655 -0.015810 -0.341079
-0.496655 -0.015810 -0.326936
-0.496655 -0.015810 -0.312794
-0.496655 -0.015810 -0.298652
-0.496655 -0.015810 -0.284510
-0.496655 -0.015810 -0.270368
-0.496655 -0.015810 -0.256226
-0.496655 -0.015810 -0.242084
-0.496655 -0.015810 -0.227941
-0.496655 -0.015810 -0.213799
-0.496655 -0.015810 -0.199657
-0.496655 -0.015810 -0.185515
-0.496655 -0.015810 -0.171373
-0.496655 -0.015810 -0.157231
-0.496655 -0.015810 -0.143089
-0.496655 -0.015810 -0.128946
-0.496655 -0.015810 -0.114804
-0.496655 -0.015810 -0.100662
-0.496655 -0.015810 -0.086520
-0.496655 -0.015810 -0.072378
-0.496655 -0.015810 -0.058236
-0.496655 -0.015810 -0.044094
-0.496655 -0.015810 -0.029952
-0.496655 -0.015810 -0.015809
-0.496655 -0.015810 -0.001667
-0.496655 -0.015810 0.012475
-0.496655 -0.015810 0.026617
-0.496655 -0.015810 0.040759
-0.496655 -0.015810 0.054901
-0.496655 -0.015810 0.069043
-0.496655 -0.015810 0.083186
-0.496655 -0.015810 0.097328
-0.496655 -0.015810 0.111470
-0.496655 -0.015810 0.125612
-0.496655 -0.015810 0.139754
-0.496655 -0.015810 0.153896
-0.496655 -0.015810 0.168038
-0.496655 -0.015810 0.182181
-0.496655 -0.015810 0.196323
-0.496655 -0.015810 0.210465
-0.496655 -0.015810 0.224607
-0.496655 -0.015810 0.238749
-0.496655 -0.015810 0.252891
-0.496655 -0.015810 0.267033
-0.496655 -0.015810 0.281175
-0.496655 -0.015810 0.295318
-0.496655 -0.015810 0.309460
-0.496655 -0.015810 0.323602
-0.496655 -0.015810 0.337744
-0.496655 -0.015810 0.351886
-0.496655 -0.015810 0.366028
-0.496655 -0.015810 0.380170
-0.496655 -0.015810 0.394313
-0.496655 -0.015810 0.408455
-0.496655 -0.015810 0.422597
-0.496655 -0.015810 0.436739
-0.496655 -0.015810 0.450881
-0.496655 -0.015810 0.465023
-0.496655 -0.015810 0.479165
-0.496655 -0.015810 0.493307
-0.496655 -0.001668 -0.496642
-0.496655 -0.001668 -0.482500
-0.496655 -0.001668 -0.468358
-0.496655 -0.001668 -0.454216
-0.496655 -0.001668 -0.440073
-0.496655 -0.001668 -0.425931
-0.496655 -0.001668 -0.411789
-0.496655 -0.001668 -0.397647
-0.496655 -0.001668 -0.383505
-0.496655 -0.001668 -0.369363
-0.496655 -0.001668 -0.355221
-0.496655 -0.001668 -0.341079
-0.496655 -0.001668 -0.326936
-0.496655 -0.001668 -0.312794
-0.496655 -0.001668 -0.298652
-0.496655 -0.001668 -0.284510
-0.496655 -0.001668 -0.270368
-0.496655 -0.001668 -0.256226
-0.496655 -0.001668 -0.242084
-0.496655 -0.001668 -0.227941
-0.496655 -0.001668 -0.213799
-0.496655 -0.001668 -0.199657
-0.496655 -0.001668 -0.185515
-0.496655 -0.001668 -0.171373
-0.496655 -0.001668 -0.157231
-0.496655 -0.001668 -0.143089
-0.496655 -0.001668 -0.128946
-0.496655 -0.001668 -0.114804
-0.496655 -0.001668 -0.100662
-0.496655 -0.001668 -0.086520
-0.496655 -0.001668 -0.072378
-0.496655 -0.001668 -0.058236
-0.496655 -0.001668 -0.044094
-0.496655 -0.001668 -0.029952
-0.496655 -0.001668 -0.015809
-0.496655 -0.001668 -0.001667
-0.496655 -0.001668 0.012475
-0.496655 -0.001668 0.026617
-0.496655 -0.001668 0.040759
-0.496655 -0.001668 0.054901
-0.496655 -0.001668 0.069043
-0.496655 -0.001668 0.083186
-0.496655 -0.001668 0.097328
-0.496655 -0.001668 0.111470
-0.496655 -0.001668 0.125612
-0.496655 -0.001668 0.139754
-0.496655 -0.001668 0.153896
-0.496655 -0.001668 0.168038
-0.496655 -0.001668 0.182181
-0.496655 -0.001668 0.196323
-0.496655 -0.001668 0.210465
-0.496655 -0.001668 0.224607
-0.496655 -0.001668 0.238749
-0.496655 -0.001668 0.252891
-0.496655 -0.001668 0.267033
-0.496655 -0.001668 0.281175
-0.496655 -0.001668 0.295318
-0.496655 -0.001668 0.309460
-0.496655 -0.001668 0.323602
-0.496655 -0.001668 0.337744
-0.496655 -0.001668 0.351886
-0.496655 -0.001668 0.366028
-0.496655 -0.001668 0.380170
-0.496655 -0.001668 0.394313
-0.496655 -0.001668 0.408455
-0.496655 -0.001668 0.422597
-0.496655 -0.001668 0.436739
-0.496655 -0.001668 0.450881
-0.496655 -0.001668 0.465023
-0.496655 -0.001668 0.479165
-0.496655 -0.001668 0.493307
-0.496655 0.012474 -0.496642
-0.496655 0.012474 -0.482500
-0.496655 0.012474 -0.468358
-0.496655 0.012474 -0.454216
-0.496655 0.012474 -0.440073
-0.496655 0.012474 -0.425931
-0.496655 0.012474 -0.411789
-0.496655 0.012474 -0.397647
-0.496655 0.012474 -0.383505
-0.496655 0.012474 -0.369363
-0.496655 0.012474 -0.355221
-0.496655 0.012474 -0.341079
-0.496655 0.012474 -0.326936
-0.496655 0.012474 -0.312794
-0.496655 0.012474 -0.298652
-0.496655 0.012474 -0.284510
-0.496655 0.012474 -0.270368
-0.496655 0.012474 -0.256226
-0.496655 0.012474 -0.242084
-0.496655 0.012474 -0.227941
-0.496655 0.012474 -0.213799
-0.496655 0.012474 -0.199657
-0.496655 0.012474 -0.185515
-0.496655 0.012474 -0.171373
-0.496655 0.012474 -0.157231
-0.496655 0.012474 -0.143089
-0.496655 0.012474 -0.128946
-0.496655 0.012474 -0.114804
-0.496655 0.012474 -0.100662
-0.496655 0.012474 -0.086520
-0.496655 0.012474 -0.072378
-0.496655 0.012474 -0.058236
-0.496655 0.012474 -0.044094
-0.496655 0.012474 -0.029952
-0.496655 0.012474 -0.015809
-0.496655 0.012474 -0.001667
-0.496655 0.012474 0.012475
-0.496655 0.012474 0.026617
-0.496655 0.012474 0.040759
-0.496655 0.012474 0.054901
-0.496655 0.012474 0.069043
-0.496655 0.012474 0.083186
-0.496655 0.012474 0.097328
-0.496655 0.012474 0.111470
-0.496655 0.012474 0.125612
-0.496655 0.012474 0.139754
-0.496655 0.012474 0.153896
-0.496655 0.012474 0.168038
-0.496655 0.012474 0.182181
-0.496655 0.012474 0.196323
-0.496655 0.012474 0.210465
-0.496655 0.012474 0.224607
-0.496655 0.012474 0.238749
-0.496655 0.012474 0.252891
-0.496655 0.012474 0.267033
-0.496655 0.012474 0.281175
-0.496655 0.012474 0.295318
-0.496655 0.012474 0.309460
-0.496655 0.012474 0.323602
-0.496655 0.012474 0.337744
-0.496655 0.012474 0.351886
-0.496655 0.012474 0.366028
-0.496655 0.012474 0.380170
-0.496655 0.012474 0.394313
-0.496655 0.012474 0.408455
-0.496655 0.012474 0.422597
-0.496655 0.012474 0.436739
-0.496655 0.012474 0.450881
-0.496655 0.012474 0.465023
-0.496655 0.012474 0.479165
-0.496655 0.012474 0.493307
-0.496655 0.026616 -0.496642
-0.496655 0.026616 -0.482500
-0.496655 0.026616 -0.468358
-0.496655 0.026616 -0.454216
-0.496655 0.026616 -0.440073
-0.496655 0.026616 -0.425931
-0.496655 0.026616 -0.411789
-0.496655 0.026616 -0.397647
-0.496655 0.026616 -0.383505
-0.496655 0.026616 -0.369363
-0.496655 0.026616 -0.355221
-0.496655 0.026616 -0.341079
-0.496655 0.026616 -0.326936
-0.496655 0.026616 -0.312794
-0.496655 0.026616 -0.298652
-0.496655 0.026616 -0.284510
-0.496655 0.026616 -0.270368
-0.496655 0.026616 -0.256226
-0.496655 0.026616 -0.242084
-0.496655 0.026616 -0.227941
-0.496655 0.026616 -0.213799
-0.496655 0.026616 -0.199657
-0.496655 0.026616 -0.185515
-0.496655 0.026616 -0.171373
-0.496655 0.026616 -0.157231
-0.496655 0.026616 -0.143089
-0.496655 0.026616 -0.128946
-0.496655 0.026616 -0.114804
-0.496655 0.026616 -0.100662
-0.496655 0.026616 -0.086520
-0.496655 0.026616 -0.072378
-0.496655 0.026616 -0.058236
-0.496655 0.026616 -0.044094
-0.496655 0.026616 -0.029952
-0.496655 0.026616 -0.015809
-0.496655 0.026616 -0.001667
-0.496655 0.026616 0.012475
-0.496655 0.026616 0.026617
-0.496655 0.026616 0.040759
-0.496655 0.026616 0.054901
-0.496655 0.026616 0.069043
-0.496655 0.026616 0.083186
-0.496655 0.026616 0.097328
-0.496655 0.026616 0.111470
-0.496655 0.026616 0.125612
-0.496655 0.026616 0.139754
-0.496655 0.026616 0.153896
-0.496655 0.026616 0.168038
-0.496655 0.026616 0.182181
-0.496655 0.026616 0.196323
-0.496655 0.026616 0.210465
-0.496655 0.026616 0.224607
-0.496655 0.026616 0.238749
-0.496655 0.026616 0.252891
-0.496655 0.026616 0.267033
-0.496655 0.026616 0.281175
-0.496655 0.026616 0.295318
-0.496655 0.026616 0.309460
-0.496655 0.026616 0.323602
-0.496655 0.026616 0.337744
-0.496655 0.026616 0.351886
-0.496655 0.026616 0.366028
-0.496655 0.026616 0.380170
-0.496655 0.026616 0.394313
-0.496655 0.026616 0.408455
-0.496655 0.026616 0.422597
-0.496655 0.026616 0.436739
-0.496655 0.026616 0.450881
-0.496655 0.026616 0.465023
-0.496655 0.026616 0.479165
-0.496655 0.026616 0.493307
-0.496655 0.040758 -0.496642
-0.496655 0.040758 -0.482500
-0.496655 0.040758 -0.468358
-0.496655 0.040758 -0.454216
-0.496655 0.040758 -0.440073
-0.496655 0.040758 -0.425931
-0.496655 0.040758 -0.411789
-0.496655 0.040758 -0.397647
-0.496655 0.040758 -0.383505
-0.496655 0.040758 -0.369363
-0.496655 0.040758 -0.355221
-0.496655 0.040758 -0.341079
-0.496655 0.040758 -0.326936
-0.496655 0.040758 -0.312794
-0.496655 0.040758 -0.298652
-0.496655 0.040758 -0.284510
-0.496655 0.040758 -0.270368
-0.496655 0.040758 -0.256226
-0.496655 0.040758 -0.242084
-0.496655 0.040758 -0.227941
-0.496655 0.040758 -0.213799
-0.496655 0.040758 -0.199657
-0.496655 0.040758 -0.185515
-0.496655 0.040758 -0.171373
-0.496655 0.040758 -0.157231
-0.496655 0.040758 -0.143089
-0.496655 0.040758 -0.128946
-0.496655 0.040758 -0.114804
-0.496655 0.040758 -0.100662
-0.496655 0.040758 -0.086520
-0.496655 0.040758 -0.072378
-0.496655 0.040758 -0.058236
-0.496655 0.040758 -0.044094
-0.496655 0.040758 -0.029952
-0.496655 0.040758 -0.015809
-0.496655 0.040758 -0.001667
-0.496655 0.040758 0.012475
-0.496655 0.040758 0.026617
-0.496655 0.040758 0.040759
-0.496655 0.040758 0.054901
-0.496655 0.040758 0.069043
-0.496655 0.040758 0.083186
-0.496655 0.040758 0.097328
-0.496655 0.040758 0.111470
-0.496655 0.040758 0.125612
-0.496655 0.040758 0.139754
-0.496655 0.040758 0.153896
-0.496655 0.040758 0.168038
-0.496655 0.040758 0.182181
-0.496655 0.040758 0.196323
-0.496655 0.040758 0.210465
-0.496655 0.040758 0.224607
-0.496655 0.040758 0.238749
-0.496655 0.040758 0.252891
-0.496655 0.040758 0.267033
-0.496655 0.040758 0.281175
-0.496655 0.040758 0.295318
-0.496655 0.040758 0.309460
-0.496655 0.040758 0.323602
-0.496655 0.040758 0.337744
-0.496655 0.040758 0.351886
-0.496655 0.040758 0.366028
-0.496655 0.040758 0.380170
-0.496655 0.040758 0.394313
-0.496655 0.040758 0.408455
-0.496655 0.040758 0.422597
-0.496655 0.040758 0.436739
-0.496655 0.040758 0.450881
-0.496655 0.040758 0.465023
-0.496655 0.040758 0.479165
-0.496655 0.040758 0.493307
-0.496655 0.054900 -0.496642
-0.496655 0.054900 -0.482500
-0.496655 0.054900 -0.468358
-0.496655 0.054900 -0.454216
-0.496655 0.054900 -0.440073
-0.496655 0.054900 -0.425931
-0.496655 0.054900 -0.411789
-0.496655 0.054900 -0.397647
-0.496655 0.054900 -0.383505
-0.496655 0.054900 -0.369363
-0.496655 0.054900 -0.355221
-0.496655 0.054900 -0.341079
-0.496655 0.054900 -0.326936
-0.496655 0.054900 -0.312794
-0.496655 0.054900 -0.298652
-0.496655 0.054900 -0.284510
-0.496655 0.054900 -0.270368
-0.496655 0.054900 -0.256226
-0.496655 0.054900 -0.242084
-0.496655 0.054900 -0.227941
-0.496655 0.054900 -0.213799
-0.496655 0.054900 -0.199657
-0.496655 0.054900 -0.185515
-0.496655 0.054900 -0.171373
-0.496655 0.054900 -0.157231
-0.496655 0.054900 -0.143089
-0.496655 0.054900 -0.128946
-0.496655 0.054900 -0.114804
-0.496655 0.054900 -0.100662
-0.496655 0.054900 -0.086520
-0.496655 0.054900 -0.072378
-0.496655 0.054900 -0.058236
-0.496655 0.054900 -0.044094
-0.496655 0.054900 -0.029952
-0.496655 0.054900 -0.015809
-0.496655 0.054900 -0.001667
-0.496655 0.054900 0.012475
-0.496655 0.054900 0.026617
-0.496655 0.054900 0.040759
-0.496655 0.054900 0.054901
-0.496655 0.054900 0.069043
-0.496655 0.054900 0.083186
-0.496655 0.054900 0.097328
-0.496655 0.054900 0.111470
-0.496655 0.054900 0.125612
-0.496655 0.054900 0.139754
-0.496655 0.054900 0.153896
-0.496655 0.054900 0.168038
-0.496655 0.054900 0.182181
-0.496655 0.054900 0.196323
-0.496655 0.054900 0.210465
-0.496655 0.054900 0.224607
-0.496655 0.054900 0.238749
-0.496655 0.054900 0.252891
-0.496655 0.054900 0.267033
-0.496655 0.054900 0.281175
-0.496655 0.054900 0.295318
-0.496655 0.054900 0.309460
-0.496655 0.054900 0.323602
-0.496655 0.054900 0.337744
-0.496655 0.054900 0.351886
-0.496655 0.054900 0.366028
-0.496655 0.054900 0.380170
-0.496655 0.054900 0.394313
-0.496655 0.054900 0.408455
-0.496655 0.054900 0.422597
-0.496655 0.054900 0.436739
-0.496655 0.054900 0.450881
-0.496655 0.054900 0.465023
-0.496655 0.054900 0.479165
-0.496655 0.054900 0.493307
-0.496655 0.069042 -0.496642
-0.496655 0.069042 -0.482500
-0.496655 0.069042 -0.468358
-0.496655 0.069042 -0.454216
-0.496655 0.069042 -0.440073
-0.496655 0.069042 -0.425931
-0.496655 0.069042 -0.411789
-0.496655 0.069042 -0.397647
-0.496655 0.069042 -0.383505
-0.496655 0.069042 -0.369363
-0.496655 0.069042 -0.355221
-0.496655 0.069042 -0.341079
-0.496655 0.069042 -0.326936
-0.496655 0.069042 -0.312794
-0.496655 0.069042 -0.298652
-0.496655 0.069042 -0.284510
-0.496655 0.069042 -0.270368
-0.496655 0.069042 -0.256226
-0.496655 0.069042 -0.242084
-0.496655 0.069042 -0.227941
-0.496655 0.069042 -0.213799
-0.496655 0.069042 -0.199657
-0.496655 0.069042 -0.185515
-0.496655 0.069042 -0.171373
-0.496655 0.069042 -0.157231
-0.496655 0.069042 -0.143089
-0.496655 0.069042 -0.128946
-0.496655 0.069042 -0.114804
-0.496655 0.069042 -0.100662
-0.496655 0.069042 -0.086520
-0.496655 0.069042 -0.072378
-0.496655 0.069042 -0.058236
-0.496655 0.069042 -0.044094
-0.496655 0.069042 -0.029952
-0.496655 0.069042 -0.015809
-0.496655 0.069042 -0.001667
-0.496655 0.069042 0.012475
-0.496655 0.069042 0.026617
-0.496655 0.069042 0.040759
-0.496655 0.069042 0.054901
-0.496655 0.069042 0.069043
-0.496655 0.069042 0.083186
-0.496655 0.069042 0.097328
-0.496655 0.069042 0.111470
-0.496655 0.069042 0.125612
-0.496655 0.069042 0.139754
-0.496655 0.069042 0.153896
-0.496655 0.069042 0.168038
-0.496655 0.069042 0.182181
-0.496655 0.069042 0.196323
-0.496655 0.069042 0.210465
-0.496655 0.069042 0.224607
-0.496655 0.069042 0.238749
-0.496655 0.069042 0.252891
-0.496655 0.069042 0.267033
-0.496655 0.069042 0.281175
-0.496655 0.069042 0.295318
-0.496655 0.069042 0.309460
-0.496655 0.069042 0.323602
-0.496655 0.069042 0.337744
-0.496655 0.069042 0.351886
-0.496655 0.069042 0.366028
-0.496655 0.069042 0.380170
-0.496655 0.069042 0.394313
-0.496655 0.069042 0.408455
-0.496655 0.069042 0.422597
-0.496655 0.069042 0.436739
-0.496655 0.069042 0.450881
-0.496655 0.069042 0.465023
-0.496655 0.069042 0.479165
-0.496655 0.069042 0.493307
-0.496655 0.083185 -0.496642
-0.496655 0.083185 -0.482500
-0.496655 0.083185 -0.468358
-0.496655 0.083185 -0.454216
-0.496655 0.083185 -0.440073
-0.496655 0.083185 -0.425931
-0.496655 0.083185 -0.411789
-0.496655 0.083185 -0.397647
-0.496655 0.083185 -0.383505
-0.496655 0.083185 -0.369363
-0.496655 0.083185 -0.355221
-0.496655 0.083185 -0.341079
-0.496655 0.083185 -0.326936
-0.496655 0.083185 -0.312794
-0.496655 0.083185 -0.298652
-0.496655 0.083185 -0.284510
-0.496655 0.083185 -0.270368
-0.496655 0.083185 -0.256226
-0.496655 0.083185 -0.242084
-0.496655 0.083185 -0.227941
-0.496655 0.083185 -0.213799
-0.496655 0.083185 -0.199657
-0.496655 0.083185 -0.185515
-0.496655 0.083185 -0.171373
-0.496655 0.083185 -0.157231
-0.496655 0.083185 -0.143089
-0.496655 0.083185 -0.128946
-0.496655 0.083185 -0.114804
-0.496655 0.083185 -0.100662
-0.496655 0.083185 -0.086520
-0.496655 0.083185 -0.072378
-0.496655 0.083185 -0.058236
-0.496655 0.083185 -0.044094
-0.496655 0.083185 -0.029952
-0.496655 0.083185 -0.015809
-0.496655 0.083185 -0.001667
-0.496655 0.083185 0.012475
-0.496655 0.083185 0.026617
-0.496655 0.083185 0.040759
-0.496655 0.083185 0.054901
-0.496655 0.083185 0.069043
-0.496655 0.083185 0.083186
-0.496655 0.083185 0.097328
-0.496655 0.083185 0.111470
-0.496655 0.083185 0.125612
-0.496655 0.083185 0.139754
-0.496655 0.083185 0.153896
-0.496655 0.083185 0.168038
-0.496655 0.083185 0.182181
-0.496655 0.083185 0.196323
-0.496655 0.083185 0.210465
-0.496655 0.083185 0.224607
-0.496655 0.083185 0.238749
-0.496655 0.083185 0.252891
-0.496655 0.083185 0.267033
-0.496655 0.083185 0.281175
-0.496655 0.083185 0.295318
-0.496655 0.083185 0.309460
-0.496655 0.083185 0.323602
-0.496655 0.083185 0.337744
-0.496655 0.083185 0.351886
-0.496655 0.083185 0.366028
-0.496655 0.083185 0.380170
-0.496655 0.083185 0.394313
-0.496655 0.083185 0.408455
-0.496655 0.083185 0.422597
-0.496655 0.083185 0.436739
-0.496655 0.083185 0.450881
-0.496655 0.083185 0.465023
-0.496655 0.083185 0.479165
-0.496655 0.083185 0.493307
-0.496655 0.097327 -0.496642
-0.496655 0.097327 -0.482500
-0.496655 0.097327 -0.468358
-0.496655 0.097327 -0.454216
-0.496655 0.097327 -0.440073
-0.496655 0.097327 -0.425931
-0.496655 0.097327 -0.411789
-0.496655 0.097327 -0.397647
-0.496655 0.097327 -0.383505
-0.496655 0.097327 -0.369363
-0.496655 0.097327 -0.355221
-0.496655 0.097327 -0.341079
-0.496655 0.097327 -0.326936
-0.496655 0.097327 -0.312794
-0.496655 0.097327 -0.298652
-0.496655 0.097327 -0.284510
-0.496655 0.097327 -0.270368
-0.496655 0.097327 -0.256226
-0.496655 0.097327 -0.242084
-0.496655 0.097327 -0.227941
-0.496655 0.097327 -0.213799
-0.496655 0.097327 -0.199657
-0.496655 0.097327 -0.185515
-0.496655 0.097327 -0.171373
-0.496655 0.097327 -0.157231
-0.496655 0.097327 -0.143089
-0.496655 0.097327 -0.128946
-0.496655 0.097327 -0.114804
-0.496655 0.097327 -0.100662
-0.496655 0.097327 -0.086520
-0.496655 0.097327 -0.072378
-0.496655 0.097327 -0.058236
-0.496655 0.097327 -0.044094
-0.496655 0.097327 -0.029952
-0.496655 0.097327 -0.015809
-0.496655 0.097327 -0.001667
-0.496655 0.097327 0.012475
-0.496655 0.097327 0.026617
-0.496655 0.097327 0.040759
-0.496655 0.097327 0.054901
-0.496655 0.097327 0.069043
-0.496655 0.097327 0.083186
-0.496655 0.097327 0.097328
-0.496655 0.097327 0.111470
-0.496655 0.097327 0.125612
-0.496655 0.097327 0.139754
-0.496655 0.097327 0.153896
-0.496655 0.097327 0.168038
-0.496655 0.097327 0.182181
-0.496655 0.097327 0.196323
-0.496655 0.097327 0.210465
-0.496655 0.097327 0.224607
-0.496655 0.097327 0.238749
-0.496655 0.097327 0.252891
-0.496655 0.097327 0.267033
-0.496655 0.097327 0.281175
-0.496655 0.097327 0.295318
-0.496655 0.097327 0.309460
-0.496655 0.097327 0.323602
-0.496655 0.097327 0.337744
-0.496655 0.097327 0.351886
-0.496655 0.097327 0.366028
-0.496655 0.097327 0.380170
-0.496655 0.097327 0.394313
-0.496655 0.097327 0.408455
-0.496655 0.097327 0.422597
-0.496655 0.097327 0.436739
-0.496655 0.097327 0.450881
-0.496655 0.097327 0.465023
-0.496655 0.097327 0.479165
-0.496655 0.097327 0.493307
-0.496655 0.111469 -0.496642
-0.496655 0.111469 -0.482500
-0.496655 0.111469 -0.468358
-0.496655 0.111469 -0.454216
-0.496655 0.111469 -0.440073
-0.496655 0.111469 -0.425931
-0.496655 0.111469 -0.411789
-0.496655 0.111469 -0.397647
-0.496655 0.111469 -0.383505
-0.496655 0.111469 -0.369363
-0.496655 0.111469 -0.355221
-0.496655 0.111469 -0.341079
-0.496655 0.111469 -0.326936
-0.496655 0.111469 -0.312794
-0.496655 0.111469 -0.298652
-0.496655 0.111469 -0.284510
-0.496655 0.111469 -0.270368
-0.496655 0.111469 -0.256226
-0.496655 0.111469 -0.242084
-0.496655 0.111469 -0.227941
-0.496655 0.111469 -0.213799
-0.496655 0.111469 -0.199657
-0.496655 0.111469 -0.185515
-0.496655 0.111469 -0.171373
-0.496655 0.111469 -0.157231
-0.496655 0.111469 -0.143089
-0.496655 0.111469 -0.128946
-0.496655 0.111469 -0.114804
-0.496655 0.111469 -0.100662
-0.496655 0.111469 -0.086520
-0.496655 0.111469 -0.072378
-0.496655 0.111469 -0.058236
-0.496655 0.111469 -0.044094
-0.496655 0.111469 -0.029952
-0.496655 0.111469 -0.015809
-0.496655 0.111469 -0.001667
-0.496655 0.111469 0.012475
-0.496655 0.111469 0.026617
-0.496655 0.111469 0.040759
-0.496655 0.111469 0.054901
-0.496655 0.111469 0.069043
-0.496655 0.111469 0.083186
-0.496655 0.111469 0.097328
-0.496655 0.111469 0.111470
-0.496655 0.111469 0.125612
-0.496655 0.111469 0.139754
-0.496655 0.111469 0.153896
-0.496655 0.111469 0.168038
-0.496655 0.111469 0.182181
-0.496655 0.111469 0.196323
-0.496655 0.111469 0.210465
-0.496655 0.111469 0.224607
-0.496655 0.111469 0.238749
-0.496655 0.111469 0.252891
-0.496655 0.111469 0.267033
-0.496655 0.111469 0.281175
-0.496655 0.111469 0.295318
-0.496655 0.111469 0.309460
-0.496655 0.111469 0.323602
-0.496655 0.111469 0.337744
-0.496655 0.111469 0.351886
-0.496655 0.111469 0.366028
-0.496655 0.111469 0.380170
-0.496655 0.111469 0.394313
-0.496655 0.111469 0.408455
-0.496655 0.111469 0.422597
-0.496655 0.111469 0.436739
-0.496655 0.111469 0.450881
-0.496655 0.111469 0.465023
-0.496655 0.111469 0.479165
-0.496655 0.111469 0.493307
-0.496655 0.125611 -0.496642
-0.496655 0.125611 -0.482500
-0.496655 0.125611 -0.468358
-0.496655 0.125611 -0.454216
-0.496655 0.125611 -0.440073
-0.496655 0.125611 -0.425931
-0.496655 0.125611 -0.411789
-0.496655 0.125611 -0.397647
-0.496655 0.125611 -0.383505
-0.496655 0.125611 -0.369363
-0.496655 0.125611 -0.355221
-0.496655 0.125611 -0.341079
-0.496655 0.125611 -0.326936
-0.496655 0.125611 -0.312794
-0.496655 0.125611 -0.298652
-0.496655 0.125611 -0.284510
-0.496655 0.125611 -0.270368
-0.496655 0.125611 -0.256226
-0.496655 0.125611 -0.242084
-0.496655 0.125611 -0.227941
-0.496655 0.125611 -0.213799
-0.496655 0.125611 -0.199657
-0.496655 0.125611 -0.185515
-0.496655 0.125611 -0.171373
-0.496655 0.125611 -0.157231
-0.496655 0.125611 -0.143089
-0.496655 0.125611 -0.128946
-0.496655 0.125611 -0.114804
-0.496655 0.125611 -0.100662
-0.496655 0.125611 -0.086520
-0.496655 0.125611 -0.072378
-0.496655 0.125611 -0.058236
-0.496655 0.125611 -0.044094
-0.496655 0.125611 -0.029952
-0.496655 0.125611 -0.015809
-0.496655 0.125611 -0.001667
-0.496655 0.125611 0.012475
-0.496655 0.125611 0.026617
-0.496655 0.125611 0.040759
-0.496655 0.125611 0.054901
-0.496655 0.125611 0.069043
-0.496655 0.125611 0.083186
-0.496655 0.125611 0.097328
-0.496655 0.125611 0.111470
-0.496655 0.125611 0.125612
-0.496655 0.125611 0.139754
-0.496655 0.125611 0.153896
-0.496655 0.125611 0.168038
-0.496655 0.125611 0.182181
-0.496655 0.125611 0.196323
-0.496655 0.125611 0.210465
-0.496655 0.125611 0.224607
-0.496655 0.125611 0.238749
-0.496655 0.125611 0.252891
-0.496655 0.125611 0.267033
-0.496655 0.125611 0.281175
-0.496655 0.125611 0.295318
-0.496655 0.125611 0.309460
-0.496655 0.125611 0.323602
-0.496655 0.125611 0.337744
-0.496655 0.125611 0.351886
-0.496655 0.125611 0.366028
-0.496655 0.125611 0.380170
-0.496655 0.125611 0.394313
-0.496655 0.125611 0.408455
-0.496655 0.125611 0.422597
-0.496655 0.125611 0.436739
-0.496655 0.125611 0.450881
-0.496655 0.125611 0.465023
-0.496655 0.125611 0.479165
-0.496655 0.125611 0.493307
-0.496655 0.139753 -0.496642
-0.496655 0.139753 -0.482500
-0.496655 0.139753 -0.468358
-0.496655 0.139753 -0.454216
-0.496655 0.139753 -0.440073
-0.496655 0.139753 -0.425931
-0.496655 0.139753 -0.411789
-0.496655 0.139753 -0.397647
-0.496655 0.139753 -0.383505
-0.496655 0.139753 -0.369363
-0.496655 0.139753 -0.355221
-0.496655 0.139753 -0.341079
-0.496655 0.139753 -0.326936
-0.496655 0.139753 -0.312794
-0.496655 0.139753 -0.298652
-0.496655 0.139753 -0.284510
-0.496655 0.139753 -0.270368
-0.496655 0.139753 -0.256226
-0.496655 0.139753 -0.242084
-0.496655 0.139753 -0.227941
-0.496655 0.139753 -0.213799
-0.496655 0.139753 -0.199657
-0.496655 0.139753 -0.185515
-0.496655 0.139753 -0.171373
-0.496655 0.139753 -0.157231
-0.496655 0.139753 -0.143089
-0.496655 0.139753 -0.128946
-0.496655 0.139753 -0.114804
-0.496655 0.139753 -0.100662
-0.496655 0.139753 -0.086520
-0.496655 0.139753 -0.072378
-0.496655 0.139753 -0.058236
-0.496655 0.139753 -0.044094
-0.496655 0.139753 -0.029952
-0.496655 0.139753 -0.015809
-0.496655 0.139753 -0.001667
-0.496655 0.139753 0.012475
-0.496655 0.139753 0.026617
-0.496655 0.139753 0.040759
-0.496655 0.139753 0.054901
-0.496655 0.139753 0.069043
-0.496655 0.139753 0.083186
-0.496655 0.139753 0.097328
-0.496655 0.139753 0.111470
-0.496655 0.139753 0.125612
-0.496655 0.139753 0.139754
-0.496655 0.139753 0.153896
-0.496655 0.139753 0.168038
-0.496655 0.139753 0.182181
-0.496655 0.139753 0.196323
-0.496655 0.139753 0.210465
-0.496655 0.139753 0.224607
-0.496655 0.139753 0.238749
-0.496655 0.139753 0.252891
-0.496655 0.139753 0.267033
-0.496655 0.139753 0.281175
-0.496655 0.139753 0.295318
-0.496655 0.139753 0.309460
-0.496655 0.139753 0.323602
-0.496655 0.139753 0.337744
-0.496655 0.139753 0.351886
-0.496655 0.139753 0.366028
-0.496655 0.139753 0.380170
-0.496655 0.139753 0.394313
-0.496655 0.139753 0.408455
-0.496655 0.139753 0.422597
-0.496655 0.139753 0.436739
-0.496655 0.139753 0.450881
-0.496655 0.139753 0.465023
-0.496655 0.139753 0.479165
-0.496655 0.139753 0.493307
-0.496655 0.153895 -0.496642
-0.496655 0.153895 -0.482500
-0.496655 0.153895 -0.468358
-0.496655 0.153895 -0.454216
-0.496655 0.153895 -0.440073
-0.496655 0.153895 -0.425931
-0.496655 0.153895 -0.411789
-0.496655 0.153895 -0.397647
-0.496655 0.153895 -0.383505
-0.496655 0.153895 -0.369363
-0.496655 0.153895 -0.355221
-0.496655 0.153895 -0.341079
-0.496655 0.153895 -0.326936
-0.496655 0.153895 -0.312794
-0.496655 0.153895 -0.298652
-0.496655 0.153895 -0.284510
-0.496655 0.153895 -0.270368
-0.496655 0.153895 -0.256226
-0.496655 0.153895 -0.242084
-0.496655 0.153895 -0.227941
-0.496655 0.153895 -0.213799
-0.496655 0.153895 -0.199657
-0.496655 0.153895 -0.185515
-0.496655 0.153895 -0.171373
-0.496655 0.153895 -0.157231
-0.496655 0.153895 -0.143089
-0.496655 0.153895 -0.128946
-0.496655 0.153895 -0.114804
-0.496655 0.153895 -0.100662
-0.496655 0.153895 -0.086520
-0.496655 0.153895 -0.072378
-0.496655 0.153895 -0.058236
