ply
format ascii 1.0
element vertex 1744
property float x
property float y
property float z
end_header
0.176744 0.502357 -0.015642
0.191545 0.502357 -0.030442
0.191545 0.502357 -0.015642
0.206345 0.502357 -0.060042
0.206345 0.502357 -0.045242
0.221145 0.502357 -0.060042
0.221145 0.502357 -0.045242
0.206345 0.502357 -0.030442
0.206345 0.502357 -0.015642
0.221145 0.502357 -0.030442
0.221145 0.502357 -0.015642
0.235944 0.502357 -0.474442
0.235944 0.502357 -0.459642
0.250744 0.502357 -0.474442
0.250744 0.502357 -0.459642
0.235944 0.502357 -0.444842
0.235944 0.502357 -0.430042
0.250744 0.502357 -0.444842
0.250744 0.502357 -0.430042
0.265545 0.502357 -0.474442
0.265545 0.502357 -0.459642
0.280345 0.502357 -0.474442
0.280345 0.502357 -0.459642
0.265545 0.502357 -0.444842
0.265545 0.502357 -0.430042
0.280345 0.502357 -0.444842
0.280345 0.502357 -0.430042
0.235944 0.502357 -0.415242
0.235944 0.502357 -0.400442
0.250744 0.502357 -0.415242
0.250744 0.502357 -0.400442
0.235944 0.502357 -0.385642
0.235944 0.502357 -0.370842
0.250744 0.502357 -0.385642
0.250744 0.502357 -0.370842
0.265545 0.502357 -0.415242
0.265545 0.502357 -0.400442
0.280345 0.502357 -0.415242
0.280345 0.502357 -0.400442
0.265545 0.502357 -0.385642
0.265545 0.502357 -0.370842
0.280345 0.502357 -0.385642
0.280345 0.502357 -0.370842
0.295145 0.502357 -0.474442
0.295145 0.502357 -0.459642
0.309944 0.502357 -0.474442
0.309944 0.502357 -0.459642
0.295145 0.502357 -0.444842
0.295145 0.502357 -0.430042
0.309944 0.502357 -0.444842
0.309944 0.502357 -0.430042
0.324744 0.502357 -0.474442
0.324744 0.502357 -0.459642
0.339545 0.502357 -0.474442
0.339545 0.502357 -0.459642
0.324744 0.502357 -0.444842
0.324744 0.502357 -0.430042
0.339545 0.502357 -0.444842
0.339545 0.502357 -0.430042
0.295145 0.502357 -0.415242
0.295145 0.502357 -0.400442
0.309944 0.502357 -0.415242
0.309944 0.502357 -0.400442
0.295145 0.502357 -0.385642
0.295145 0.502357 -0.370842
0.309944 0.502357 -0.385642
0.309944 0.502357 -0.370842
0.324744 0.502357 -0.415242
0.324744 0.502357 -0.400442
0.339545 0.502357 -0.415242
0.339545 0.502357 -0.400442
0.324744 0.502357 -0.385642
0.324744 0.502357 -0.370842
0.339545 0.502357 -0.385642
0.339545 0.502357 -0.370842
0.235944 0.502357 -0.356042
0.235944 0.502357 -0.341242
0.250744 0.502357 -0.356042
0.250744 0.502357 -0.341242
0.235944 0.502357 -0.326442
0.235944 0.502357 -0.311642
0.250744 0.502357 -0.326442
0.250744 0.502357 -0.311642
0.265545 0.502357 -0.356042
0.265545 0.502357 -0.341242
0.280345 0.502357 -0.356042
0.280345 0.502357 -0.341242
0.265545 0.502357 -0.326442
0.265545 0.502357 -0.311642
0.280345 0.502357 -0.326442
0.280345 0.502357 -0.311642
0.235944 0.502357 -0.296842
0.235944 0.502357 -0.282042
0.250744 0.502357 -0.296842
0.250744 0.502357 -0.282042
0.235944 0.502357 -0.267242
0.235944 0.502357 -0.252442
0.250744 0.502357 -0.267242
0.250744 0.502357 -0.252442
0.265545 0.502357 -0.296842
0.265545 0.502357 -0.282042
0.280345 0.502357 -0.296842
0.280345 0.502357 -0.282042
0.265545 0.502357 -0.267242
0.265545 0.502357 -0.252442
0.280345 0.502357 -0.267242
0.280345 0.502357 -0.252442
0.295145 0.502357 -0.356042
0.295145 0.502357 -0.341242
0.309944 0.502357 -0.356042
0.309944 0.502357 -0.341242
0.295145 0.502357 -0.326442
0.295145 0.502357 -0.311642
0.309944 0.502357 -0.326442
0.309944 0.502357 -0.311642
0.324744 0.502357 -0.356042
0.324744 0.502357 -0.341242
0.339545 0.502357 -0.356042
0.339545 0.502357 -0.341242
0.324744 0.502357 -0.326442
0.324744 0.502357 -0.311642
0.339545 0.502357 -0.326442
0.339545 0.502357 -0.311642
0.295145 0.502357 -0.296842
0.295145 0.502357 -0.282042
0.309944 0.502357 -0.296842
0.309944 0.502357 -0.282042
0.295145 0.502357 -0.267242
0.295145 0.502357 -0.252442
0.309944 0.502357 -0.267242
0.309944 0.502357 -0.252442
0.324744 0.502357 -0.296842
0.324744 0.502357 -0.282042
0.339545 0.502357 -0.296842
0.339545 0.502357 -0.282042
0.324744 0.502357 -0.267242
0.324744 0.502357 -0.252442
0.339545 0.502357 -0.267242
0.339545 0.502357 -0.252442
0.354345 0.502357 -0.474442
0.354345 0.502357 -0.459642
0.369145 0.502357 -0.474442
0.369145 0.502357 -0.459642
0.354345 0.502357 -0.444842
0.354345 0.502357 -0.430042
0.369145 0.502357 -0.444842
0.369145 0.502357 -0.430042
0.383944 0.502357 -0.474442
0.383944 0.502357 -0.459642
0.398744 0.502357 -0.474442
0.398744 0.502357 -0.459642
0.383944 0.502357 -0.444842
0.383944 0.502357 -0.430042
0.398744 0.502357 -0.444842
0.398744 0.502357 -0.430042
0.354345 0.502357 -0.415242
0.354345 0.502357 -0.400442
0.369145 0.502357 -0.415242
0.369145 0.502357 -0.400442
0.354345 0.502357 -0.385642
0.354345 0.502357 -0.370842
0.369145 0.502357 -0.385642
0.369145 0.502357 -0.370842
0.383944 0.502357 -0.415242
0.383944 0.502357 -0.400442
0.398744 0.502357 -0.415242
0.398744 0.502357 -0.400442
0.383944 0.502357 -0.385642
0.383944 0.502357 -0.370842
0.398744 0.502357 -0.385642
0.398744 0.502357 -0.370842
0.413545 0.502357 -0.474442
0.413545 0.502357 -0.459642
0.428345 0.502357 -0.474442
0.428345 0.502357 -0.459642
0.413545 0.502357 -0.444842
0.413545 0.502357 -0.430042
0.428345 0.502357 -0.444842
0.428345 0.502357 -0.430042
0.443145 0.502357 -0.474442
0.443145 0.502357 -0.459642
0.457944 0.502357 -0.474442
0.457944 0.502357 -0.459642
0.443145 0.502357 -0.444842
0.443145 0.502357 -0.430042
0.457944 0.502357 -0.444842
0.457944 0.502357 -0.430042
0.413545 0.502357 -0.415242
0.413545 0.502357 -0.400442
0.428345 0.502357 -0.415242
0.428345 0.502357 -0.400442
0.413545 0.502357 -0.385642
0.413545 0.502357 -0.370842
0.428345 0.502357 -0.385642
0.428345 0.502357 -0.370842
0.443145 0.502357 -0.415242
0.443145 0.502357 -0.400442
0.457944 0.502357 -0.415242
0.457944 0.502357 -0.400442
0.443145 0.502357 -0.385642
0.443145 0.502357 -0.370842
0.457944 0.502357 -0.385642
0.457944 0.502357 -0.370842
0.354345 0.502357 -0.356042
0.354345 0.502357 -0.341242
0.369145 0.502357 -0.356042
0.369145 0.502357 -0.341242
0.354345 0.502357 -0.326442
0.354345 0.502357 -0.311642
0.369145 0.502357 -0.326442
0.369145 0.502357 -0.311642
0.383944 0.502357 -0.356042
0.383944 0.502357 -0.341242
0.398744 0.502357 -0.356042
0.398744 0.502357 -0.341242
0.383944 0.502357 -0.326442
0.383944 0.502357 -0.311642
0.398744 0.502357 -0.326442
0.398744 0.502357 -0.311642
0.354345 0.502357 -0.296842
0.354345 0.502357 -0.282042
0.369145 0.502357 -0.296842
0.369145 0.502357 -0.282042
0.354345 0.502357 -0.267242
0.354345 0.502357 -0.252442
0.369145 0.502357 -0.267242
0.369145 0.502357 -0.252442
0.383944 0.502357 -0.296842
0.383944 0.502357 -0.282042
0.398744 0.502357 -0.296842
0.398744 0.502357 -0.282042
0.383944 0.502357 -0.267242
0.383944 0.502357 -0.252442
0.398744 0.502357 -0.267242
0.398744 0.502357 -0.252442
0.413545 0.502357 -0.356042
0.413545 0.502357 -0.341242
0.428345 0.502357 -0.356042
0.428345 0.502357 -0.341242
0.413545 0.502357 -0.326442
0.413545 0.502357 -0.311642
0.428345 0.502357 -0.326442
0.428345 0.502357 -0.311642
0.443145 0.502357 -0.356042
0.443145 0.502357 -0.341242
0.457944 0.502357 -0.356042
0.457944 0.502357 -0.341242
0.443145 0.502357 -0.326442
0.443145 0.502357 -0.311642
0.457944 0.502357 -0.326442
0.457944 0.502357 -0.311642
0.413545 0.502357 -0.296842
0.413545 0.502357 -0.282042
0.428345 0.502357 -0.296842
0.428345 0.502357 -0.282042
0.413545 0.502357 -0.267242
0.413545 0.502357 -0.252442
0.428345 0.502357 -0.267242
0.428345 0.502357 -0.252442
0.443145 0.502357 -0.296842
0.443145 0.502357 -0.282042
0.457944 0.502357 -0.296842
0.457944 0.502357 -0.282042
0.443145 0.502357 -0.267242
0.443145 0.502357 -0.252442
0.457944 0.502357 -0.267242
0.457944 0.502357 -0.252442
0.235944 0.502357 -0.237642
0.235944 0.502357 -0.222842
0.250744 0.502357 -0.237642
0.250744 0.502357 -0.222842
0.235944 0.502357 -0.208042
0.235944 0.502357 -0.193242
0.250744 0.502357 -0.208042
0.250744 0.502357 -0.193242
0.265545 0.502357 -0.237642
0.265545 0.502357 -0.222842
0.280345 0.502357 -0.237642
0.280345 0.502357 -0.222842
0.265545 0.502357 -0.208042
0.265545 0.502357 -0.193242
0.280345 0.502357 -0.208042
0.280345 0.502357 -0.193242
0.235944 0.502357 -0.178442
0.235944 0.502357 -0.163642
0.250744 0.502357 -0.178442
0.250744 0.502357 -0.163642
0.235944 0.502357 -0.148842
0.235944 0.502357 -0.134042
0.250744 0.502357 -0.148842
0.250744 0.502357 -0.134042
0.265545 0.502357 -0.178442
0.265545 0.502357 -0.163642
0.280345 0.502357 -0.178442
0.280345 0.502357 -0.163642
0.265545 0.502357 -0.148842
0.265545 0.502357 -0.134042
0.280345 0.502357 -0.148842
0.280345 0.502357 -0.134042
0.295145 0.502357 -0.237642
0.295145 0.502357 -0.222842
0.309944 0.502357 -0.237642
0.309944 0.502357 -0.222842
0.295145 0.502357 -0.208042
0.295145 0.502357 -0.193242
0.309944 0.502357 -0.208042
0.309944 0.502357 -0.193242
0.324744 0.502357 -0.237642
0.324744 0.502357 -0.222842
0.339545 0.502357 -0.237642
0.339545 0.502357 -0.222842
0.324744 0.502357 -0.208042
0.324744 0.502357 -0.193242
0.339545 0.502357 -0.208042
0.339545 0.502357 -0.193242
0.295145 0.502357 -0.178442
0.295145 0.502357 -0.163642
0.309944 0.502357 -0.178442
0.309944 0.502357 -0.163642
0.295145 0.502357 -0.148842
0.295145 0.502357 -0.134042
0.309944 0.502357 -0.148842
0.309944 0.502357 -0.134042
0.324744 0.502357 -0.178442
0.324744 0.502357 -0.163642
0.339545 0.502357 -0.178442
0.339545 0.502357 -0.163642
0.324744 0.502357 -0.148842
0.324744 0.502357 -0.134042
0.339545 0.502357 -0.148842
0.339545 0.502357 -0.134042
0.235944 0.502357 -0.119242
0.235944 0.502357 -0.104442
0.250744 0.502357 -0.119242
0.250744 0.502357 -0.104442
0.235944 0.502357 -0.089642
0.235944 0.502357 -0.074842
0.250744 0.502357 -0.089642
0.250744 0.502357 -0.074842
0.265545 0.502357 -0.119242
0.265545 0.502357 -0.104442
0.280345 0.502357 -0.119242
0.280345 0.502357 -0.104442
0.265545 0.502357 -0.089642
0.265545 0.502357 -0.074842
0.280345 0.502357 -0.089642
0.280345 0.502357 -0.074842
0.235944 0.502357 -0.060042
0.235944 0.502357 -0.045242
0.250744 0.502357 -0.060042
0.250744 0.502357 -0.045242
0.235944 0.502357 -0.030442
0.235944 0.502357 -0.015642
0.250744 0.502357 -0.030442
0.250744 0.502357 -0.015642
0.265545 0.502357 -0.060042
0.265545 0.502357 -0.045242
0.280345 0.502357 -0.060042
0.280345 0.502357 -0.045242
0.265545 0.502357 -0.030442
0.265545 0.502357 -0.015642
0.280345 0.502357 -0.030442
0.280345 0.502357 -0.015642
0.295145 0.502357 -0.119242
0.295145 0.502357 -0.104442
0.309944 0.502357 -0.119242
0.309944 0.502357 -0.104442
0.295145 0.502357 -0.089642
0.295145 0.502357 -0.074842
0.309944 0.502357 -0.089642
0.309944 0.502357 -0.074842
0.324744 0.502357 -0.119242
0.324744 0.502357 -0.104442
0.339545 0.502357 -0.119242
0.339545 0.502357 -0.104442
0.324744 0.502357 -0.089642
0.324744 0.502357 -0.074842
0.339545 0.502357 -0.089642
0.339545 0.502357 -0.074842
0.295145 0.502357 -0.060042
0.295145 0.502357 -0.045242
0.309944 0.502357 -0.060042
0.309944 0.502357 -0.045242
0.295145 0.502357 -0.030442
0.295145 0.502357 -0.015642
0.309944 0.502357 -0.030442
0.309944 0.502357 -0.015642
0.324744 0.502357 -0.060042
0.324744 0.502357 -0.045242
0.339545 0.502357 -0.060042
0.339545 0.502357 -0.045242
0.324744 0.502357 -0.030442
0.324744 0.502357 -0.015642
0.339545 0.502357 -0.030442
0.339545 0.502357 -0.015642
0.354345 0.502357 -0.237642
0.354345 0.502357 -0.222842
0.369145 0.502357 -0.237642
0.369145 0.502357 -0.222842
0.354345 0.502357 -0.208042
0.354345 0.502357 -0.193242
0.369145 0.502357 -0.208042
0.369145 0.502357 -0.193242
0.383944 0.502357 -0.237642
0.383944 0.502357 -0.222842
0.398744 0.502357 -0.237642
0.398744 0.502357 -0.222842
0.383944 0.502357 -0.208042
0.383944 0.502357 -0.193242
0.398744 0.502357 -0.208042
0.398744 0.502357 -0.193242
0.354345 0.502357 -0.178442
0.354345 0.502357 -0.163642
0.369145 0.502357 -0.178442
0.369145 0.502357 -0.163642
0.354345 0.502357 -0.148842
0.354345 0.502357 -0.134042
0.369145 0.502357 -0.148842
0.369145 0.502357 -0.134042
0.383944 0.502357 -0.178442
0.383944 0.502357 -0.163642
0.398744 0.502357 -0.178442
0.398744 0.502357 -0.163642
0.383944 0.502357 -0.148842
0.383944 0.502357 -0.134042
0.398744 0.502357 -0.148842
0.398744 0.502357 -0.134042
0.413545 0.502357 -0.237642
0.413545 0.502357 -0.222842
0.428345 0.502357 -0.237642
0.428345 0.502357 -0.222842
0.413545 0.502357 -0.208042
0.413545 0.502357 -0.193242
0.428345 0.502357 -0.208042
0.428345 0.502357 -0.193242
0.443145 0.502357 -0.237642
0.443145 0.502357 -0.222842
0.457944 0.502357 -0.237642
0.457944 0.502357 -0.222842
0.443145 0.502357 -0.208042
0.443145 0.502357 -0.193242
0.457944 0.502357 -0.208042
0.457944 0.502357 -0.193242
0.413545 0.502357 -0.178442
0.413545 0.502357 -0.163642
0.428345 0.502357 -0.178442
0.428345 0.502357 -0.163642
0.413545 0.502357 -0.148842
0.413545 0.502357 -0.134042
0.428345 0.502357 -0.148842
0.428345 0.502357 -0.134042
0.443145 0.502357 -0.178442
0.443145 0.502357 -0.163642
0.457944 0.502357 -0.178442
0.457944 0.502357 -0.163642
0.443145 0.502357 -0.148842
0.443145 0.502357 -0.134042
0.457944 0.502357 -0.148842
0.457944 0.502357 -0.134042
0.354345 0.502357 -0.119242
0.354345 0.502357 -0.104442
0.369145 0.502357 -0.119242
0.369145 0.502357 -0.104442
0.354345 0.502357 -0.089642
0.354345 0.502357 -0.074842
0.369145 0.502357 -0.089642
0.369145 0.502357 -0.074842
0.383944 0.502357 -0.119242
0.383944 0.502357 -0.104442
0.398744 0.502357 -0.119242
0.398744 0.502357 -0.104442
0.383944 0.502357 -0.089642
0.383944 0.502357 -0.074842
0.398744 0.502357 -0.089642
0.398744 0.502357 -0.074842
0.354345 0.502357 -0.060042
0.354345 0.502357 -0.045242
0.369145 0.502357 -0.060042
0.369145 0.502357 -0.045242
0.354345 0.502357 -0.030442
0.354345 0.502357 -0.015642
0.369145 0.502357 -0.030442
0.369145 0.502357 -0.015642
0.383944 0.502357 -0.060042
0.383944 0.502357 -0.045242
0.398744 0.502357 -0.060042
0.398744 0.502357 -0.045242
0.383944 0.502357 -0.030442
0.383944 0.502357 -0.015642
0.398744 0.502357 -0.030442
0.398744 0.502357 -0.015642
0.413545 0.502357 -0.119242
0.413545 0.502357 -0.104442
0.428345 0.502357 -0.119242
0.428345 0.502357 -0.104442
0.413545 0.502357 -0.089642
0.413545 0.502357 -0.074842
0.428345 0.502357 -0.089642
0.428345 0.502357 -0.074842
0.443145 0.502357 -0.119242
0.443145 0.502357 -0.104442
0.457944 0.502357 -0.119242
0.457944 0.502357 -0.104442
0.443145 0.502357 -0.089642
0.443145 0.502357 -0.074842
0.457944 0.502357 -0.089642
0.457944 0.502357 -0.074842
0.413545 0.502357 -0.060042
0.413545 0.502357 -0.045242
0.428345 0.502357 -0.060042
0.428345 0.502357 -0.045242
0.413545 0.502357 -0.030442
0.413545 0.502357 -0.015642
0.428345 0.502357 -0.030442
0.428345 0.502357 -0.015642
0.443145 0.502357 -0.060042
0.443145 0.502357 -0.045242
0.457944 0.502357 -0.060042
0.457944 0.502357 -0.045242
0.443145 0.502357 -0.030442
0.443145 0.502357 -0.015642
0.457944 0.502357 -0.030442
0.457944 0.502357 -0.015642
-0.000856 0.502357 -0.000842
-0.000856 0.502357 0.013958
0.013944 0.502357 -0.000842
0.013944 0.502357 0.013958
-0.000856 0.502357 0.028758
-0.000856 0.502357 0.043558
0.013944 0.502357 0.028758
0.013944 0.502357 0.043558
0.028744 0.502357 -0.000842
0.028744 0.502357 0.013958
0.043545 0.502357 -0.000842
0.043545 0.502357 0.013958
0.028744 0.502357 0.028758
0.028744 0.502357 0.043558
0.043545 0.502357 0.028758
0.043545 0.502357 0.043558
-0.000856 0.502357 0.058358
-0.000856 0.502357 0.073158
0.013944 0.502357 0.058358
0.013944 0.502357 0.073158
-0.000856 0.502357 0.087958
-0.000856 0.502357 0.102758
0.013944 0.502357 0.087958
0.013944 0.502357 0.102758
0.028744 0.502357 0.058358
0.028744 0.502357 0.073158
0.043545 0.502357 0.058358
0.043545 0.502357 0.073158
0.028744 0.502357 0.087958
0.028744 0.502357 0.102758
0.043545 0.502357 0.087958
0.043545 0.502357 0.102758
0.058345 0.502357 -0.000842
0.058345 0.502357 0.013958
0.073145 0.502357 -0.000842
0.073145 0.502357 0.013958
0.058345 0.502357 0.028758
0.058345 0.502357 0.043558
0.073145 0.502357 0.028758
0.073145 0.502357 0.043558
0.087944 0.502357 -0.000842
0.087944 0.502357 0.013958
0.102744 0.502357 -0.000842
0.102744 0.502357 0.013958
0.087944 0.502357 0.028758
0.087944 0.502357 0.043558
0.102744 0.502357 0.028758
0.102744 0.502357 0.043558
0.058345 0.502357 0.058358
0.058345 0.502357 0.073158
0.073145 0.502357 0.058358
0.073145 0.502357 0.073158
0.058345 0.502357 0.087958
0.058345 0.502357 0.102758
0.073145 0.502357 0.087958
0.073145 0.502357 0.102758
0.087944 0.502357 0.058358
0.087944 0.502357 0.073158
0.102744 0.502357 0.058358
0.102744 0.502357 0.073158
0.087944 0.502357 0.087958
0.087944 0.502357 0.102758
0.102744 0.502357 0.087958
0.102744 0.502357 0.102758
-0.000856 0.502357 0.117558
-0.000856 0.502357 0.132358
0.013944 0.502357 0.117558
0.013944 0.502357 0.132358
-0.000856 0.502357 0.147158
-0.000856 0.502357 0.161958
0.013944 0.502357 0.147158
0.013944 0.502357 0.161958
0.028744 0.502357 0.117558
0.028744 0.502357 0.132358
0.043545 0.502357 0.117558
0.043545 0.502357 0.132358
0.028744 0.502357 0.147158
0.028744 0.502357 0.161958
0.043545 0.502357 0.147158
0.043545 0.502357 0.161958
-0.000856 0.502357 0.176758
-0.000856 0.502357 0.191558
0.013944 0.502357 0.176758
0.013944 0.502357 0.191558
-0.000856 0.502357 0.206358
-0.000856 0.502357 0.221158
0.013944 0.502357 0.206358
0.013944 0.502357 0.221158
0.028744 0.502357 0.176758
0.028744 0.502357 0.191558
0.043545 0.502357 0.176758
0.043545 0.502357 0.191558
0.028744 0.502357 0.206358
0.028744 0.502357 0.221158
0.043545 0.502357 0.206358
0.043545 0.502357 0.221158
0.058345 0.502357 0.117558
0.058345 0.502357 0.132358
0.073145 0.502357 0.117558
0.073145 0.502357 0.132358
0.058345 0.502357 0.147158
0.058345 0.502357 0.161958
0.073145 0.502357 0.147158
0.073145 0.502357 0.161958
0.087944 0.502357 0.117558
0.087944 0.502357 0.132358
0.102744 0.502357 0.117558
0.102744 0.502357 0.132358
0.087944 0.502357 0.147158
0.087944 0.502357 0.161958
0.102744 0.502357 0.147158
0.102744 0.502357 0.161958
0.058345 0.502357 0.176758
0.058345 0.502357 0.191558
0.073145 0.502357 0.176758
0.073145 0.502357 0.191558
0.058345 0.502357 0.206358
0.058345 0.502357 0.221158
0.073145 0.502357 0.206358
0.073145 0.502357 0.221158
0.087944 0.502357 0.176758
0.087944 0.502357 0.191558
0.102744 0.502357 0.176758
0.102744 0.502357 0.191558
0.087944 0.502357 0.206358
0.087944 0.502357 0.221158
0.102744 0.502357 0.206358
0.102744 0.502357 0.221158
0.117545 0.502357 -0.000842
0.117545 0.502357 0.013958
0.132345 0.502357 -0.000842
0.132345 0.502357 0.013958
0.117545 0.502357 0.028758
0.117545 0.502357 0.043558
0.132345 0.502357 0.028758
0.132345 0.502357 0.043558
0.147145 0.502357 -0.000842
0.147145 0.502357 0.013958
0.161944 0.502357 -0.000842
0.161944 0.502357 0.013958
0.147145 0.502357 0.028758
0.147145 0.502357 0.043558
0.161944 0.502357 0.028758
0.161944 0.502357 0.043558
0.117545 0.502357 0.058358
0.117545 0.502357 0.073158
0.132345 0.502357 0.058358
0.132345 0.502357 0.073158
0.117545 0.502357 0.087958
0.117545 0.502357 0.102758
0.132345 0.502357 0.087958
0.132345 0.502357 0.102758
0.147145 0.502357 0.058358
0.147145 0.502357 0.073158
0.161944 0.502357 0.058358
0.161944 0.502357 0.073158
0.147145 0.502357 0.087958
0.147145 0.502357 0.102758
0.161944 0.502357 0.087958
0.161944 0.502357 0.102758
0.176744 0.502357 -0.000842
0.176744 0.502357 0.013958
0.191545 0.502357 -0.000842
0.191545 0.502357 0.013958
0.176744 0.502357 0.028758
0.176744 0.502357 0.043558
0.191545 0.502357 0.028758
0.191545 0.502357 0.043558
0.206345 0.502357 -0.000842
0.206345 0.502357 0.013958
0.221145 0.502357 -0.000842
0.221145 0.502357 0.013958
0.206345 0.502357 0.028758
0.206345 0.502357 0.043558
0.221145 0.502357 0.028758
0.221145 0.502357 0.043558
0.176744 0.502357 0.058358
0.176744 0.502357 0.073158
0.191545 0.502357 0.058358
0.191545 0.502357 0.073158
0.176744 0.502357 0.087958
0.176744 0.502357 0.102758
0.191545 0.502357 0.087958
0.191545 0.502357 0.102758
0.206345 0.502357 0.058358
0.206345 0.502357 0.073158
0.221145 0.502357 0.058358
0.221145 0.502357 0.073158
0.206345 0.502357 0.087958
0.206345 0.502357 0.102758
0.221145 0.502357 0.087958
0.221145 0.502357 0.102758
0.117545 0.502357 0.117558
0.117545 0.502357 0.132358
0.132345 0.502357 0.117558
0.132345 0.502357 0.132358
0.117545 0.502357 0.147158
0.117545 0.502357 0.161958
0.132345 0.502357 0.147158
0.132345 0.502357 0.161958
0.147145 0.502357 0.117558
0.147145 0.502357 0.132358
0.161944 0.502357 0.117558
0.161944 0.502357 0.132358
0.147145 0.502357 0.147158
0.147145 0.502357 0.161958
0.161944 0.502357 0.147158
0.161944 0.502357 0.161958
0.117545 0.502357 0.176758
0.117545 0.502357 0.191558
0.132345 0.502357 0.176758
0.132345 0.502357 0.191558
0.117545 0.502357 0.206358
0.117545 0.502357 0.221158
0.132345 0.502357 0.206358
0.132345 0.502357 0.221158
0.147145 0.502357 0.176758
0.147145 0.502357 0.191558
0.161944 0.502357 0.176758
0.161944 0.502357 0.191558
0.147145 0.502357 0.206358
0.147145 0.502357 0.221158
0.161944 0.502357 0.206358
0.161944 0.502357 0.221158
0.176744 0.502357 0.117558
0.176744 0.502357 0.132358
0.191545 0.502357 0.117558
0.191545 0.502357 0.132358
0.176744 0.502357 0.147158
0.176744 0.502357 0.161958
0.191545 0.502357 0.147158
0.191545 0.502357 0.161958
0.206345 0.502357 0.117558
0.206345 0.502357 0.132358
0.221145 0.502357 0.117558
0.221145 0.502357 0.132358
0.206345 0.502357 0.147158
0.206345 0.502357 0.161958
0.221145 0.502357 0.147158
0.221145 0.502357 0.161958
0.176744 0.502357 0.176758
0.176744 0.502357 0.191558
0.191545 0.502357 0.176758
0.191545 0.502357 0.191558
0.176744 0.502357 0.206358
0.176744 0.502357 0.221158
0.191545 0.502357 0.206358
0.191545 0.502357 0.221158
0.206345 0.502357 0.176758
0.206345 0.502357 0.191558
0.221145 0.502357 0.176758
0.221145 0.502357 0.191558
0.206345 0.502357 0.206358
0.206345 0.502357 0.221158
0.221145 0.502357 0.206358
0.221145 0.502357 0.221158
-0.000856 0.502357 0.235958
-0.000856 0.502357 0.250758
0.013944 0.502357 0.235958
0.013944 0.502357 0.250758
-0.000856 0.502357 0.265558
-0.000856 0.502357 0.280358
0.013944 0.502357 0.265558
0.013944 0.502357 0.280358
0.028744 0.502357 0.235958
0.028744 0.502357 0.250758
0.043545 0.502357 0.235958
0.043545 0.502357 0.250758
0.028744 0.502357 0.265558
0.028744 0.502357 0.280358
0.043545 0.502357 0.265558
0.043545 0.502357 0.280358
-0.000856 0.502357 0.295158
-0.000856 0.502357 0.309958
0.013944 0.502357 0.295158
0.013944 0.502357 0.309958
-0.000856 0.502357 0.324758
-0.000856 0.502357 0.339558
0.013944 0.502357 0.324758
0.013944 0.502357 0.339558
0.028744 0.502357 0.295158
0.028744 0.502357 0.309958
0.043545 0.502357 0.295158
0.043545 0.502357 0.309958
0.028744 0.502357 0.324758
0.028744 0.502357 0.339558
0.043545 0.502357 0.324758
0.043545 0.502357 0.339558
0.058345 0.502357 0.235958
0.058345 0.502357 0.250758
0.073145 0.502357 0.235958
0.073145 0.502357 0.250758
0.058345 0.502357 0.265558
0.058345 0.502357 0.280358
0.073145 0.502357 0.265558
0.073145 0.502357 0.280358
0.087944 0.502357 0.235958
0.087944 0.502357 0.250758
0.102744 0.502357 0.235958
0.102744 0.502357 0.250758
0.087944 0.502357 0.265558
0.087944 0.502357 0.280358
0.102744 0.502357 0.265558
0.102744 0.502357 0.280358
0.058345 0.502357 0.295158
0.058345 0.502357 0.309958
0.073145 0.502357 0.295158
0.073145 0.502357 0.309958
0.058345 0.502357 0.324758
0.058345 0.502357 0.339558
0.073145 0.502357 0.324758
0.073145 0.502357 0.339558
0.087944 0.502357 0.295158
0.087944 0.502357 0.309958
0.102744 0.502357 0.295158
0.102744 0.502357 0.309958
0.087944 0.502357 0.324758
0.087944 0.502357 0.339558
0.102744 0.502357 0.324758
0.102744 0.502357 0.339558
-0.000856 0.502357 0.354358
-0.000856 0.502357 0.369158
0.013944 0.502357 0.354358
0.013944 0.502357 0.369158
-0.000856 0.502357 0.383958
-0.000856 0.502357 0.398758
0.013944 0.502357 0.383958
0.013944 0.502357 0.398758
0.028744 0.502357 0.354358
0.028744 0.502357 0.369158
0.043545 0.502357 0.354358
0.043545 0.502357 0.369158
0.028744 0.502357 0.383958
0.028744 0.502357 0.398758
0.043545 0.502357 0.383958
0.043545 0.502357 0.398758
-0.000856 0.502357 0.413558
-0.000856 0.502357 0.428358
0.013944 0.502357 0.413558
0.013944 0.502357 0.428358
-0.000856 0.502357 0.443158
-0.000856 0.502357 0.457958
0.013944 0.502357 0.443158
0.013944 0.502357 0.457958
0.028744 0.502357 0.413558
0.028744 0.502357 0.428358
0.043545 0.502357 0.413558
0.043545 0.502357 0.428358
0.028744 0.502357 0.443158
0.028744 0.502357 0.457958
0.043545 0.502357 0.443158
0.043545 0.502357 0.457958
0.058345 0.502357 0.354358
0.058345 0.502357 0.369158
0.073145 0.502357 0.354358
0.073145 0.502357 0.369158
0.058345 0.502357 0.383958
0.058345 0.502357 0.398758
0.073145 0.502357 0.383958
0.073145 0.502357 0.398758
0.087944 0.502357 0.354358
0.087944 0.502357 0.369158
0.102744 0.502357 0.354358
0.102744 0.502357 0.369158
0.087944 0.502357 0.383958
0.087944 0.502357 0.398758
0.102744 0.502357 0.383958
0.102744 0.502357 0.398758
0.058345 0.502357 0.413558
0.058345 0.502357 0.428358
0.073145 0.502357 0.413558
0.073145 0.502357 0.428358
0.058345 0.502357 0.443158
0.058345 0.502357 0.457958
0.073145 0.502357 0.443158
0.073145 0.502357 0.457958
0.087944 0.502357 0.413558
0.087944 0.502357 0.428358
0.102744 0.502357 0.413558
0.102744 0.502357 0.428358
0.087944 0.502357 0.443158
0.087944 0.502357 0.457958
0.102744 0.502357 0.443158
0.102744 0.502357 0.457958
0.117545 0.502357 0.235958
0.117545 0.502357 0.250758
0.132345 0.502357 0.235958
0.132345 0.502357 0.250758
0.117545 0.502357 0.265558
0.117545 0.502357 0.280358
0.132345 0.502357 0.265558
0.132345 0.502357 0.280358
0.147145 0.502357 0.235958
0.147145 0.502357 0.250758
0.161944 0.502357 0.235958
0.161944 0.502357 0.250758
0.147145 0.502357 0.265558
0.147145 0.502357 0.280358
0.161944 0.502357 0.265558
0.161944 0.502357 0.280358
0.117545 0.502357 0.295158
0.117545 0.502357 0.309958
0.132345 0.502357 0.295158
0.132345 0.502357 0.309958
0.117545 0.502357 0.324758
0.117545 0.502357 0.339558
0.132345 0.502357 0.324758
0.132345 0.502357 0.339558
0.147145 0.502357 0.295158
0.147145 0.502357 0.309958
0.161944 0.502357 0.295158
0.161944 0.502357 0.309958
0.147145 0.502357 0.324758
0.147145 0.502357 0.339558
0.161944 0.502357 0.324758
0.161944 0.502357 0.339558
0.176744 0.502357 0.235958
0.176744 0.502357 0.250758
0.191545 0.502357 0.235958
0.191545 0.502357 0.250758
0.176744 0.502357 0.265558
0.176744 0.502357 0.280358
0.191545 0.502357 0.265558
0.191545 0.502357 0.280358
0.206345 0.502357 0.235958
0.206345 0.502357 0.250758
0.221145 0.502357 0.235958
0.221145 0.502357 0.250758
0.206345 0.502357 0.265558
0.206345 0.502357 0.280358
0.221145 0.502357 0.265558
0.221145 0.502357 0.280358
0.176744 0.502357 0.295158
0.176744 0.502357 0.309958
0.191545 0.502357 0.295158
0.191545 0.502357 0.309958
0.176744 0.502357 0.324758
0.176744 0.502357 0.339558
0.191545 0.502357 0.324758
0.191545 0.502357 0.339558
0.206345 0.502357 0.295158
0.206345 0.502357 0.309958
0.221145 0.502357 0.295158
0.221145 0.502357 0.309958
0.206345 0.502357 0.324758
0.206345 0.502357 0.339558
0.221145 0.502357 0.324758
0.221145 0.502357 0.339558
0.117545 0.502357 0.354358
0.117545 0.502357 0.369158
0.132345 0.502357 0.354358
0.132345 0.502357 0.369158
0.117545 0.502357 0.383958
0.117545 0.502357 0.398758
0.132345 0.502357 0.383958
0.132345 0.502357 0.398758
0.147145 0.502357 0.354358
0.147145 0.502357 0.369158
0.161944 0.502357 0.354358
0.161944 0.502357 0.369158
0.147145 0.502357 0.383958
0.147145 0.502357 0.398758
0.161944 0.502357 0.383958
0.161944 0.502357 0.398758
0.117545 0.502357 0.413558
0.117545 0.502357 0.428358
0.132345 0.502357 0.413558
0.132345 0.502357 0.428358
0.117545 0.502357 0.443158
0.117545 0.502357 0.457958
0.132345 0.502357 0.443158
0.132345 0.502357 0.457958
0.147145 0.502357 0.413558
0.147145 0.502357 0.428358
0.161944 0.502357 0.413558
0.161944 0.502357 0.428358
0.147145 0.502357 0.443158
0.147145 0.502357 0.457958
0.161944 0.502357 0.443158
0.161944 0.502357 0.457958
0.176744 0.502357 0.354358
0.176744 0.502357 0.369158
0.191545 0.502357 0.354358
0.191545 0.502357 0.369158
0.176744 0.502357 0.383958
0.176744 0.502357 0.398758
0.191545 0.502357 0.383958
0.191545 0.502357 0.398758
0.206345 0.502357 0.354358
0.206345 0.502357 0.369158
0.221145 0.502357 0.354358
0.221145 0.502357 0.369158
0.206345 0.502357 0.383958
0.206345 0.502357 0.398758
0.221145 0.502357 0.383958
0.221145 0.502357 0.398758
0.176744 0.502357 0.413558
0.176744 0.502357 0.428358
0.191545 0.502357 0.413558
0.191545 0.502357 0.428358
0.176744 0.502357 0.443158
0.176744 0.502357 0.457958
0.191545 0.502357 0.443158
0.191545 0.502357 0.457958
0.206345 0.502357 0.413558
0.206345 0.502357 0.428358
0.221145 0.502357 0.413558
0.221145 0.502357 0.428358
0.206345 0.502357 0.443158
0.206345 0.502357 0.457958
0.221145 0.502357 0.443158
0.221145 0.502357 0.457958
0.235944 0.502357 -0.000842
0.235944 0.502357 0.013958
0.250744 0.502357 -0.000842
0.250744 0.502357 0.013958
0.235944 0.502357 0.028758
0.235944 0.502357 0.043558
0.250744 0.502357 0.028758
0.250744 0.502357 0.043558
0.265545 0.502357 -0.000842
0.265545 0.502357 0.013958
0.280345 0.502357 -0.000842
0.280345 0.502357 0.013958
0.265545 0.502357 0.028758
0.265545 0.502357 0.043558
0.280345 0.502357 0.028758
0.280345 0.502357 0.043558
0.235944 0.502357 0.058358
0.235944 0.502357 0.073158
0.250744 0.502357 0.058358
0.250744 0.502357 0.073158
0.235944 0.502357 0.087958
0.235944 0.502357 0.102758
0.250744 0.502357 0.087958
0.250744 0.502357 0.102758
0.265545 0.502357 0.058358
0.265545 0.502357 0.073158
0.280345 0.502357 0.058358
0.280345 0.502357 0.073158
0.265545 0.502357 0.087958
0.265545 0.502357 0.102758
0.280345 0.502357 0.087958
0.280345 0.502357 0.102758
0.295145 0.502357 -0.000842
0.295145 0.502357 0.013958
0.309944 0.502357 -0.000842
0.309944 0.502357 0.013958
0.295145 0.502357 0.028758
0.295145 0.502357 0.043558
0.309944 0.502357 0.028758
0.309944 0.502357 0.043558
0.324744 0.502357 -0.000842
0.324744 0.502357 0.013958
0.339545 0.502357 -0.000842
0.339545 0.502357 0.013958
0.324744 0.502357 0.028758
0.324744 0.502357 0.043558
0.339545 0.502357 0.028758
0.339545 0.502357 0.043558
0.295145 0.502357 0.058358
0.295145 0.502357 0.073158
0.309944 0.502357 0.058358
0.309944 0.502357 0.073158
0.295145 0.502357 0.087958
0.295145 0.502357 0.102758
0.309944 0.502357 0.087958
0.309944 0.502357 0.102758
0.324744 0.502357 0.058358
0.324744 0.502357 0.073158
0.339545 0.502357 0.058358
0.339545 0.502357 0.073158
0.324744 0.502357 0.087958
0.324744 0.502357 0.102758
0.339545 0.502357 0.087958
0.339545 0.502357 0.102758
0.235944 0.502357 0.117558
0.235944 0.502357 0.132358
0.250744 0.502357 0.117558
0.250744 0.502357 0.132358
0.235944 0.502357 0.147158
0.235944 0.502357 0.161958
0.250744 0.502357 0.147158
0.250744 0.502357 0.161958
0.265545 0.502357 0.117558
0.265545 0.502357 0.132358
0.280345 0.502357 0.117558
0.280345 0.502357 0.132358
0.265545 0.502357 0.147158
0.265545 0.502357 0.161958
0.280345 0.502357 0.147158
0.280345 0.502357 0.161958
0.235944 0.502357 0.176758
0.235944 0.502357 0.191558
0.250744 0.502357 0.176758
0.250744 0.502357 0.191558
0.235944 0.502357 0.206358
0.235944 0.502357 0.221158
0.250744 0.502357 0.206358
0.250744 0.502357 0.221158
0.265545 0.502357 0.176758
0.265545 0.502357 0.191558
0.280345 0.502357 0.176758
0.280345 0.502357 0.191558
0.265545 0.502357 0.206358
0.265545 0.502357 0.221158
0.280345 0.502357 0.206358
0.280345 0.502357 0.221158
0.295145 0.502357 0.117558
0.295145 0.502357 0.132358
0.309944 0.502357 0.117558
0.309944 0.502357 0.132358
0.295145 0.502357 0.147158
0.295145 0.502357 0.161958
0.309944 0.502357 0.147158
0.309944 0.502357 0.161958
0.324744 0.502357 0.117558
0.324744 0.502357 0.132358
0.339545 0.502357 0.117558
0.339545 0.502357 0.132358
0.324744 0.502357 0.147158
0.324744 0.502357 0.161958
0.339545 0.502357 0.147158
0.339545 0.502357 0.161958
0.295145 0.502357 0.176758
0.295145 0.502357 0.191558
0.309944 0.502357 0.176758
0.309944 0.502357 0.191558
0.295145 0.502357 0.206358
0.295145 0.502357 0.221158
0.309944 0.502357 0.206358
0.309944 0.502357 0.221158
0.324744 0.502357 0.176758
0.324744 0.502357 0.191558
0.339545 0.502357 0.176758
0.339545 0.502357 0.191558
0.324744 0.502357 0.206358
0.324744 0.502357 0.221158
0.339545 0.502357 0.206358
0.339545 0.502357 0.221158
0.354345 0.502357 -0.000842
0.354345 0.502357 0.013958
0.369145 0.502357 -0.000842
0.369145 0.502357 0.013958
0.354345 0.502357 0.028758
0.354345 0.502357 0.043558
0.369145 0.502357 0.028758
0.369145 0.502357 0.043558
0.383944 0.502357 -0.000842
0.383944 0.502357 0.013958
0.398744 0.502357 -0.000842
0.398744 0.502357 0.013958
0.383944 0.502357 0.028758
0.383944 0.502357 0.043558
0.398744 0.502357 0.028758
0.398744 0.502357 0.043558
0.354345 0.502357 0.058358
0.354345 0.502357 0.073158
0.369145 0.502357 0.058358
0.369145 0.502357 0.073158
0.354345 0.502357 0.087958
0.354345 0.502357 0.102758
0.369145 0.502357 0.087958
0.369145 0.502357 0.102758
0.383944 0.502357 0.058358
0.383944 0.502357 0.073158
0.398744 0.502357 0.058358
0.398744 0.502357 0.073158
0.383944 0.502357 0.087958
0.383944 0.502357 0.102758
0.398744 0.502357 0.087958
0.398744 0.502357 0.102758
0.413545 0.502357 -0.000842
0.413545 0.502357 0.013958
0.428345 0.502357 -0.000842
0.428345 0.502357 0.013958
0.413545 0.502357 0.028758
0.413545 0.502357 0.043558
0.428345 0.502357 0.028758
0.428345 0.502357 0.043558
0.443145 0.502357 -0.000842
0.443145 0.502357 0.013958
0.457944 0.502357 -0.000842
0.457944 0.502357 0.013958
0.443145 0.502357 0.028758
0.443145 0.502357 0.043558
0.457944 0.502357 0.028758
0.457944 0.502357 0.043558
0.413545 0.502357 0.058358
0.413545 0.502357 0.073158
0.428345 0.502357 0.058358
0.428345 0.502357 0.073158
0.413545 0.502357 0.087958
0.413545 0.502357 0.102758
0.428345 0.502357 0.087958
0.428345 0.502357 0.102758
0.443145 0.502357 0.058358
0.443145 0.502357 0.073158
0.457944 0.502357 0.058358
0.457944 0.502357 0.073158
0.443145 0.502357 0.087958
0.443145 0.502357 0.102758
0.457944 0.502357 0.087958
0.457944 0.502357 0.102758
0.354345 0.502357 0.117558
0.354345 0.502357 0.132358
0.369145 0.502357 0.117558
0.369145 0.502357 0.132358
0.354345 0.502357 0.147158
0.354345 0.502357 0.161958
0.369145 0.502357 0.147158
0.369145 0.502357 0.161958
0.383944 0.502357 0.117558
0.383944 0.502357 0.132358
0.398744 0.502357 0.117558
0.398744 0.502357 0.132358
0.383944 0.502357 0.147158
0.383944 0.502357 0.161958
0.398744 0.502357 0.147158
0.398744 0.502357 0.161958
0.354345 0.502357 0.176758
0.354345 0.502357 0.191558
0.369145 0.502357 0.176758
0.369145 0.502357 0.191558
0.354345 0.502357 0.206358
0.354345 0.502357 0.221158
0.369145 0.502357 0.206358
0.369145 0.502357 0.221158
0.383944 0.502357 0.176758
0.383944 0.502357 0.191558
0.398744 0.502357 0.176758
0.398744 0.502357 0.191558
0.383944 0.502357 0.206358
0.383944 0.502357 0.221158
0.398744 0.502357 0.206358
0.398744 0.502357 0.221158
0.413545 0.502357 0.117558
0.413545 0.502357 0.132358
0.428345 0.502357 0.117558
0.428345 0.502357 0.132358
0.413545 0.502357 0.147158
0.413545 0.502357 0.161958
0.428345 0.502357 0.147158
0.428345 0.502357 0.161958
0.443145 0.502357 0.117558
0.443145 0.502357 0.132358
0.457944 0.502357 0.117558
0.457944 0.502357 0.132358
0.443145 0.502357 0.147158
0.443145 0.502357 0.161958
0.457944 0.502357 0.147158
0.457944 0.502357 0.161958
0.413545 0.502357 0.176758
0.413545 0.502357 0.191558
0.428345 0.502357 0.176758
0.428345 0.502357 0.191558
0.413545 0.502357 0.206358
0.413545 0.502357 0.221158
0.428345 0.502357 0.206358
0.428345 0.502357 0.221158
0.443145 0.502357 0.176758
0.443145 0.502357 0.191558
0.457944 0.502357 0.176758
0.457944 0.502357 0.191558
0.443145 0.502357 0.206358
0.443145 0.502357 0.221158
0.457944 0.502357 0.206358
0.457944 0.502357 0.221158
0.235944 0.502357 0.235958
0.235944 0.502357 0.250758
0.250744 0.502357 0.235958
0.250744 0.502357 0.250758
0.235944 0.502357 0.265558
0.235944 0.502357 0.280358
0.250744 0.502357 0.265558
0.250744 0.502357 0.280358
0.265545 0.502357 0.235958
0.265545 0.502357 0.250758
0.280345 0.502357 0.235958
0.280345 0.502357 0.250758
0.265545 0.502357 0.265558
0.265545 0.502357 0.280358
0.280345 0.502357 0.265558
0.280345 0.502357 0.280358
0.235944 0.502357 0.295158
0.235944 0.502357 0.309958
0.250744 0.502357 0.295158
0.250744 0.502357 0.309958
0.235944 0.502357 0.324758
0.235944 0.502357 0.339558
0.250744 0.502357 0.324758
0.250744 0.502357 0.339558
0.265545 0.502357 0.295158
0.265545 0.502357 0.309958
0.280345 0.502357 0.295158
0.280345 0.502357 0.309958
0.265545 0.502357 0.324758
0.265545 0.502357 0.339558
0.280345 0.502357 0.324758
0.280345 0.502357 0.339558
0.295145 0.502357 0.235958
0.295145 0.502357 0.250758
0.309944 0.502357 0.235958
0.309944 0.502357 0.250758
0.295145 0.502357 0.265558
0.295145 0.502357 0.280358
0.309944 0.502357 0.265558
0.309944 0.502357 0.280358
0.324744 0.502357 0.235958
0.324744 0.502357 0.250758
0.339545 0.502357 0.235958
0.339545 0.502357 0.250758
0.324744 0.502357 0.265558
0.324744 0.502357 0.280358
0.339545 0.502357 0.265558
0.339545 0.502357 0.280358
0.295145 0.502357 0.295158
0.295145 0.502357 0.309958
0.309944 0.502357 0.295158
0.309944 0.502357 0.309958
0.295145 0.502357 0.324758
0.295145 0.502357 0.339558
0.309944 0.502357 0.324758
0.309944 0.502357 0.339558
0.324744 0.502357 0.295158
0.324744 0.502357 0.309958
0.339545 0.502357 0.295158
0.339545 0.502357 0.309958
0.324744 0.502357 0.324758
0.324744 0.502357 0.339558
0.339545 0.502357 0.324758
0.339545 0.502357 0.339558
0.235944 0.502357 0.354358
0.235944 0.502357 0.369158
0.250744 0.502357 0.354358
0.250744 0.502357 0.369158
0.235944 0.502357 0.383958
0.235944 0.502357 0.398758
0.250744 0.502357 0.383958
0.250744 0.502357 0.398758
0.265545 0.502357 0.354358
0.265545 0.502357 0.369158
0.280345 0.502357 0.354358
0.280345 0.502357 0.369158
0.265545 0.502357 0.383958
0.265545 0.502357 0.398758
0.280345 0.502357 0.383958
0.280345 0.502357 0.398758
0.235944 0.502357 0.413558
0.235944 0.502357 0.428358
0.250744 0.502357 0.413558
0.250744 0.502357 0.428358
0.235944 0.502357 0.443158
0.235944 0.502357 0.457958
0.250744 0.502357 0.443158
0.250744 0.502357 0.457958
0.265545 0.502357 0.413558
0.265545 0.502357 0.428358
0.280345 0.502357 0.413558
0.280345 0.502357 0.428358
0.265545 0.502357 0.443158
0.265545 0.502357 0.457958
0.280345 0.502357 0.443158
0.280345 0.502357 0.457958
0.295145 0.502357 0.354358
0.295145 0.502357 0.369158
0.309944 0.502357 0.354358
0.309944 0.502357 0.369158
0.295145 0.502357 0.383958
0.295145 0.502357 0.398758
0.309944 0.502357 0.383958
0.309944 0.502357 0.398758
0.324744 0.502357 0.354358
0.324744 0.502357 0.369158
0.339545 0.502357 0.354358
0.339545 0.502357 0.369158
0.324744 0.502357 0.383958
0.324744 0.502357 0.398758
0.339545 0.502357 0.383958
0.339545 0.502357 0.398758
0.295145 0.502357 0.413558
0.295145 0.502357 0.428358
0.309944 0.502357 0.413558
0.309944 0.502357 0.428358
0.295145 0.502357 0.443158
0.295145 0.502357 0.457958
0.309944 0.502357 0.443158
0.309944 0.502357 0.457958
0.324744 0.502357 0.413558
0.324744 0.502357 0.428358
0.339545 0.502357 0.413558
0.339545 0.502357 0.428358
0.324744 0.502357 0.443158
0.324744 0.502357 0.457958
0.339545 0.502357 0.443158
0.339545 0.502357 0.457958
0.354345 0.502357 0.235958
0.354345 0.502357 0.250758
0.369145 0.502357 0.235958
0.369145 0.502357 0.250758
0.354345 0.502357 0.265558
0.354345 0.502357 0.280358
0.369145 0.502357 0.265558
0.369145 0.502357 0.280358
0.383944 0.502357 0.235958
0.383944 0.502357 0.250758
0.398744 0.502357 0.235958
0.398744 0.502357 0.250758
0.383944 0.502357 0.265558
0.383944 0.502357 0.280358
0.398744 0.502357 0.265558
0.398744 0.502357 0.280358
0.354345 0.502357 0.295158
0.354345 0.502357 0.309958
0.369145 0.502357 0.295158
0.369145 0.502357 0.309958
0.354345 0.502357 0.324758
0.354345 0.502357 0.339558
0.369145 0.502357 0.324758
0.369145 0.502357 0.339558
0.383944 0.502357 0.295158
0.383944 0.502357 0.309958
0.398744 0.502357 0.295158
0.398744 0.502357 0.309958
0.383944 0.502357 0.324758
0.383944 0.502357 0.339558
0.398744 0.502357 0.324758
0.398744 0.502357 0.339558
0.413545 0.502357 0.235958
0.413545 0.502357 0.250758
0.428345 0.502357 0.235958
0.428345 0.502357 0.250758
0.413545 0.502357 0.265558
0.413545 0.502357 0.280358
0.428345 0.502357 0.265558
0.428345 0.502357 0.280358
0.443145 0.502357 0.235958
0.443145 0.502357 0.250758
0.457944 0.502357 0.235958
0.457944 0.502357 0.250758
0.443145 0.502357 0.265558
0.443145 0.502357 0.280358
0.457944 0.502357 0.265558
0.457944 0.502357 0.280358
0.413545 0.502357 0.295158
0.413545 0.502357 0.309958
0.428345 0.502357 0.295158
0.428345 0.502357 0.309958
0.413545 0.502357 0.324758
0.413545 0.502357 0.339558
0.428345 0.502357 0.324758
0.428345 0.502357 0.339558
0.443145 0.502357 0.295158
0.443145 0.502357 0.309958
0.457944 0.502357 0.295158
0.457944 0.502357 0.309958
0.443145 0.502357 0.324758
0.443145 0.502357 0.339558
0.457944 0.502357 0.324758
0.457944 0.502357 0.339558
0.354345 0.502357 0.354358
0.354345 0.502357 0.369158
0.369145 0.502357 0.354358
0.369145 0.502357 0.369158
0.354345 0.502357 0.383958
0.354345 0.502357 0.398758
0.369145 0.502357 0.383958
0.369145 0.502357 0.398758
0.383944 0.502357 0.354358
0.383944 0.502357 0.369158
0.398744 0.502357 0.354358
0.398744 0.502357 0.369158
0.383944 0.502357 0.383958
0.383944 0.502357 0.398758
0.398744 0.502357 0.383958
0.398744 0.502357 0.398758
0.354345 0.502357 0.413558
0.354345 0.502357 0.428358
0.369145 0.502357 0.413558
0.369145 0.502357 0.428358
0.354345 0.502357 0.443158
0.354345 0.502357 0.457958
0.369145 0.502357 0.443158
0.369145 0.502357 0.457958
0.383944 0.502357 0.413558
0.383944 0.502357 0.428358
0.398744 0.502357 0.413558
0.398744 0.502357 0.428358
0.383944 0.502357 0.443158
0.383944 0.502357 0.457958
0.398744 0.502357 0.443158
0.398744 0.502357 0.457958
0.413545 0.502357 0.354358
0.413545 0.502357 0.369158
0.428345 0.502357 0.354358
0.428345 0.502357 0.369158
0.413545 0.502357 0.383958
0.413545 0.502357 0.398758
0.428345 0.502357 0.383958
0.428345 0.502357 0.398758
0.443145 0.502357 0.354358
0.443145 0.502357 0.369158
0.457944 0.502357 0.354358
0.457944 0.502357 0.369158
0.443145 0.502357 0.383958
0.443145 0.502357 0.398758
0.457944 0.502357 0.383958
0.457944 0.502357 0.398758
0.413545 0.502357 0.413558
0.413545 0.502357 0.428358
0.428345 0.502357 0.413558
0.428345 0.502357 0.428358
0.413545 0.502357 0.443158
0.413545 0.502357 0.457958
0.428345 0.502357 0.443158
0.428345 0.502357 0.457958
0.443145 0.502357 0.413558
0.443145 0.502357 0.428358
0.457944 0.502357 0.413558
0.457944 0.502357 0.428358
0.443145 0.502357 0.443158
0.443145 0.502357 0.457958
0.457944 0.502357 0.443158
0.457944 0.502357 0.457958
-0.474455 0.443157 0.502358
-0.474455 0.457957 0.502358
-0.459655 0.443157 0.502358
-0.459655 0.457957 0.502358
-0.474455 0.472757 0.502358
-0.474455 0.487557 0.502358
-0.459655 0.472757 0.502358
-0.459655 0.487557 0.502358
-0.444855 0.443157 0.502358
-0.444855 0.457957 0.502358
-0.430055 0.443157 0.502358
-0.430055 0.457957 0.502358
-0.444855 0.472757 0.502358
-0.444855 0.487557 0.502358
-0.430055 0.472757 0.502358
-0.430055 0.487557 0.502358
-0.474455 0.502357 0.472758
-0.474455 0.502357 0.487558
-0.459655 0.502357 0.472758
-0.459655 0.502357 0.487558
-0.444855 0.502357 0.472758
-0.444855 0.502357 0.487558
-0.430055 0.502357 0.472758
-0.430055 0.502357 0.487558
-0.415255 0.443157 0.502358
-0.415255 0.457957 0.502358
-0.400456 0.443157 0.502358
-0.400456 0.457957 0.502358
-0.415255 0.472757 0.502358
-0.415255 0.487557 0.502358
-0.400456 0.472757 0.502358
-0.400456 0.487557 0.502358
-0.385655 0.443157 0.502358
-0.385655 0.457957 0.502358
-0.370855 0.443157 0.502358
-0.370855 0.457957 0.502358
-0.385655 0.472757 0.502358
-0.385655 0.487557 0.502358
-0.370855 0.472757 0.502358
-0.370855 0.487557 0.502358
-0.415255 0.502357 0.472758
-0.415255 0.502357 0.487558
-0.400456 0.502357 0.472758
-0.400456 0.502357 0.487558
-0.385655 0.502357 0.472758
-0.385655 0.502357 0.487558
-0.370855 0.502357 0.472758
-0.370855 0.502357 0.487558
-0.356055 0.443157 0.502358
-0.356055 0.457957 0.502358
-0.341255 0.443157 0.502358
-0.341255 0.457957 0.502358
-0.356055 0.472757 0.502358
-0.356055 0.487557 0.502358
-0.341255 0.472757 0.502358
-0.341255 0.487557 0.502358
-0.326455 0.443157 0.502358
-0.326455 0.457957 0.502358
-0.311655 0.443157 0.502358
-0.311655 0.457957 0.502358
-0.326455 0.472757 0.502358
-0.326455 0.487557 0.502358
-0.311655 0.472757 0.502358
-0.311655 0.487557 0.502358
-0.356055 0.502357 0.472758
-0.356055 0.502357 0.487558
-0.341255 0.502357 0.472758
-0.341255 0.502357 0.487558
-0.326455 0.502357 0.472758
-0.326455 0.502357 0.487558
-0.311655 0.502357 0.472758
-0.311655 0.502357 0.487558
-0.296855 0.443157 0.502358
-0.296855 0.457957 0.502358
-0.282055 0.443157 0.502358
-0.282055 0.457957 0.502358
-0.296855 0.472757 0.502358
-0.296855 0.487557 0.502358
-0.282055 0.472757 0.502358
-0.282055 0.487557 0.502358
-0.267255 0.443157 0.502358
-0.267255 0.457957 0.502358
-0.252455 0.443157 0.502358
-0.252455 0.457957 0.502358
-0.267255 0.472757 0.502358
-0.267255 0.487557 0.502358
-0.252455 0.472757 0.502358
-0.252455 0.487557 0.502358
-0.296855 0.502357 0.472758
-0.296855 0.502357 0.487558
-0.282055 0.502357 0.472758
-0.282055 0.502357 0.487558
-0.267255 0.502357 0.472758
-0.267255 0.502357 0.487558
-0.252455 0.502357 0.472758
-0.252455 0.502357 0.487558
-0.237655 0.443157 0.502358
-0.237655 0.457957 0.502358
-0.222856 0.443157 0.502358
-0.222856 0.457957 0.502358
-0.237655 0.472757 0.502358
-0.237655 0.487557 0.502358
-0.222856 0.472757 0.502358
-0.222856 0.487557 0.502358
-0.208055 0.443157 0.502358
-0.208055 0.457957 0.502358
-0.193255 0.443157 0.502358
-0.193255 0.457957 0.502358
-0.208055 0.472757 0.502358
-0.208055 0.487557 0.502358
-0.193255 0.472757 0.502358
-0.193255 0.487557 0.502358
-0.237655 0.502357 0.472758
-0.237655 0.502357 0.487558
-0.222856 0.502357 0.472758
-0.222856 0.502357 0.487558
-0.208055 0.502357 0.472758
-0.208055 0.502357 0.487558
-0.193255 0.502357 0.472758
-0.193255 0.502357 0.487558
-0.178456 0.443157 0.502358
-0.178456 0.457957 0.502358
-0.163655 0.443157 0.502358
-0.163655 0.457957 0.502358
-0.178456 0.472757 0.502358
-0.178456 0.487557 0.502358
-0.163655 0.472757 0.502358
-0.163655 0.487557 0.502358
-0.148856 0.443157 0.502358
-0.148856 0.457957 0.502358
-0.134055 0.443157 0.502358
-0.134055 0.457957 0.502358
-0.148856 0.472757 0.502358
-0.148856 0.487557 0.502358
-0.134055 0.472757 0.502358
-0.134055 0.487557 0.502358
-0.178456 0.502357 0.472758
-0.178456 0.502357 0.487558
-0.163655 0.502357 0.472758
-0.163655 0.502357 0.487558
-0.148856 0.502357 0.472758
-0.148856 0.502357 0.487558
-0.134055 0.502357 0.472758
-0.134055 0.502357 0.487558
-0.119255 0.443157 0.502358
-0.119255 0.457957 0.502358
-0.104455 0.443157 0.502358
-0.104455 0.457957 0.502358
-0.119255 0.472757 0.502358
-0.119255 0.487557 0.502358
-0.104455 0.472757 0.502358
-0.104455 0.487557 0.502358
-0.089655 0.443157 0.502358
-0.089655 0.457957 0.502358
-0.074855 0.443157 0.502358
-0.074855 0.457957 0.502358
-0.089655 0.472757 0.502358
-0.089655 0.487557 0.502358
-0.074855 0.472757 0.502358
-0.074855 0.487557 0.502358
-0.119255 0.502357 0.472758
-0.119255 0.502357 0.487558
-0.104455 0.502357 0.472758
-0.104455 0.502357 0.487558
-0.089655 0.502357 0.472758
-0.089655 0.502357 0.487558
-0.074855 0.502357 0.472758
-0.074855 0.502357 0.487558
-0.060055 0.443157 0.502358
-0.060055 0.457957 0.502358
-0.045255 0.443157 0.502358
-0.045255 0.457957 0.502358
-0.060055 0.472757 0.502358
-0.060055 0.487557 0.502358
-0.045255 0.472757 0.502358
-0.045255 0.487557 0.502358
-0.030455 0.443157 0.502358
-0.030455 0.457957 0.502358
-0.015655 0.443157 0.502358
-0.015655 0.457957 0.502358
-0.030455 0.472757 0.502358
-0.030455 0.487557 0.502358
-0.015655 0.472757 0.502358
-0.015655 0.487557 0.502358
-0.060055 0.502357 0.472758
-0.060055 0.502357 0.487558
-0.045255 0.502357 0.472758
-0.045255 0.502357 0.487558
-0.030455 0.502357 0.472758
-0.030455 0.502357 0.487558
-0.015655 0.502357 0.472758
-0.015655 0.502357 0.487558
-0.000856 0.443157 0.502358
-0.000856 0.457957 0.502358
0.013944 0.443157 0.502358
0.013944 0.457957 0.502358
-0.000856 0.472757 0.502358
