ply
format ascii 1.0
element vertex 1648
property float x
property float y
property float z
end_header
0.173345 -0.406643 -0.506642
0.193345 -0.426643 -0.506642
0.193345 -0.406643 -0.506642
0.173345 -0.386643 -0.506642
0.173345 -0.366643 -0.506642
0.193345 -0.386643 -0.506642
0.193345 -0.366643 -0.506642
0.213344 -0.426643 -0.506642
0.213344 -0.406643 -0.506642
0.233345 -0.426643 -0.506642
0.233345 -0.406643 -0.506642
0.213344 -0.386643 -0.506642
0.213344 -0.366643 -0.506642
0.233345 -0.386643 -0.506642
0.233345 -0.366643 -0.506642
0.253345 -0.506643 -0.506642
0.253345 -0.506643 -0.486642
0.253345 -0.486643 -0.506642
0.273344 -0.506643 -0.506642
0.273344 -0.506643 -0.486642
0.273344 -0.486643 -0.506642
0.253345 -0.466643 -0.506642
0.253345 -0.446643 -0.506642
0.273344 -0.466643 -0.506642
0.273344 -0.446643 -0.506642
0.293345 -0.506643 -0.506642
0.293345 -0.506643 -0.486642
0.293345 -0.486643 -0.506642
0.313345 -0.506643 -0.506642
0.313345 -0.506643 -0.486642
0.313345 -0.486643 -0.506642
0.293345 -0.466643 -0.506642
0.293345 -0.446643 -0.506642
0.313345 -0.466643 -0.506642
0.313345 -0.446643 -0.506642
0.253345 -0.426643 -0.506642
0.253345 -0.406643 -0.506642
0.273344 -0.426643 -0.506642
0.273344 -0.406643 -0.506642
0.253345 -0.386643 -0.506642
0.253345 -0.366643 -0.506642
0.273344 -0.386643 -0.506642
0.273344 -0.366643 -0.506642
0.293345 -0.426643 -0.506642
0.293345 -0.406643 -0.506642
0.313345 -0.426643 -0.506642
0.313345 -0.406643 -0.506642
0.293345 -0.386643 -0.506642
0.293345 -0.366643 -0.506642
0.313345 -0.386643 -0.506642
0.313345 -0.366643 -0.506642
0.173345 -0.346643 -0.506642
0.173345 -0.326643 -0.506642
0.193345 -0.346643 -0.506642
0.193345 -0.326643 -0.506642
0.173345 -0.306643 -0.506642
0.173345 -0.286643 -0.506642
0.193345 -0.306643 -0.506642
0.193345 -0.286643 -0.506642
0.213344 -0.346643 -0.506642
0.213344 -0.326643 -0.506642
0.233345 -0.346643 -0.506642
0.233345 -0.326643 -0.506642
0.213344 -0.306643 -0.506642
0.213344 -0.286643 -0.506642
0.233345 -0.306643 -0.506642
0.233345 -0.286643 -0.506642
0.173345 -0.266643 -0.506642
0.173345 -0.246643 -0.506642
0.193345 -0.266643 -0.506642
0.193345 -0.246643 -0.506642
0.173345 -0.226643 -0.506642
0.173345 -0.206643 -0.506642
0.193345 -0.226643 -0.506642
0.193345 -0.206643 -0.506642
0.213344 -0.266643 -0.506642
0.213344 -0.246643 -0.506642
0.233345 -0.266643 -0.506642
0.233345 -0.246643 -0.506642
0.213344 -0.226643 -0.506642
0.213344 -0.206643 -0.506642
0.233345 -0.226643 -0.506642
0.233345 -0.206643 -0.506642
0.253345 -0.346643 -0.506642
0.253345 -0.326643 -0.506642
0.273344 -0.346643 -0.506642
0.273344 -0.326643 -0.506642
0.253345 -0.306643 -0.506642
0.253345 -0.286643 -0.506642
0.273344 -0.306643 -0.506642
0.273344 -0.286643 -0.506642
0.293345 -0.346643 -0.506642
0.293345 -0.326643 -0.506642
0.313345 -0.346643 -0.506642
0.313345 -0.326643 -0.506642
0.293345 -0.306643 -0.506642
0.293345 -0.286643 -0.506642
0.313345 -0.306643 -0.506642
0.313345 -0.286643 -0.506642
0.253345 -0.266643 -0.506642
0.253345 -0.246643 -0.506642
0.273344 -0.266643 -0.506642
0.273344 -0.246643 -0.506642
0.253345 -0.226643 -0.506642
0.253345 -0.206643 -0.506642
0.273344 -0.226643 -0.506642
0.273344 -0.206643 -0.506642
0.293345 -0.266643 -0.506642
0.293345 -0.246643 -0.506642
0.313345 -0.266643 -0.506642
0.313345 -0.246643 -0.506642
0.293345 -0.226643 -0.506642
0.293345 -0.206643 -0.506642
0.313345 -0.226643 -0.506642
0.313345 -0.206643 -0.506642
0.333344 -0.506643 -0.506642
0.333344 -0.506643 -0.486642
0.333344 -0.486643 -0.506642
0.353345 -0.506643 -0.506642
0.353345 -0.506643 -0.486642
0.353345 -0.486643 -0.506642
0.333344 -0.466643 -0.506642
0.333344 -0.446643 -0.506642
0.353345 -0.466643 -0.506642
0.353345 -0.446643 -0.506642
0.373345 -0.506643 -0.506642
0.373345 -0.506643 -0.486642
0.373345 -0.486643 -0.506642
0.393344 -0.506643 -0.506642
0.393344 -0.506643 -0.486642
0.393344 -0.486643 -0.506642
0.373345 -0.466643 -0.506642
0.373345 -0.446643 -0.506642
0.393344 -0.466643 -0.506642
0.393344 -0.446643 -0.506642
0.333344 -0.426643 -0.506642
0.333344 -0.406643 -0.506642
0.353345 -0.426643 -0.506642
0.353345 -0.406643 -0.506642
0.333344 -0.386643 -0.506642
0.333344 -0.366643 -0.506642
0.353345 -0.386643 -0.506642
0.353345 -0.366643 -0.506642
0.373345 -0.426643 -0.506642
0.373345 -0.406643 -0.506642
0.393344 -0.426643 -0.506642
0.393344 -0.406643 -0.506642
0.373345 -0.386643 -0.506642
0.373345 -0.366643 -0.506642
0.393344 -0.386643 -0.506642
0.393344 -0.366643 -0.506642
0.413345 -0.506643 -0.506642
0.413345 -0.506643 -0.486642
0.413345 -0.486643 -0.506642
0.433345 -0.506643 -0.506642
0.433345 -0.506643 -0.486642
0.433345 -0.486643 -0.506642
0.413345 -0.466643 -0.506642
0.413345 -0.446643 -0.506642
0.433345 -0.466643 -0.506642
0.433345 -0.446643 -0.506642
0.453344 -0.506643 -0.506642
0.453344 -0.506643 -0.486642
0.453344 -0.486643 -0.506642
0.473345 -0.506643 -0.506642
0.473345 -0.506643 -0.486642
0.473345 -0.486643 -0.506642
0.453344 -0.466643 -0.506642
0.453344 -0.446643 -0.506642
0.473345 -0.466643 -0.506642
0.473345 -0.446643 -0.506642
0.413345 -0.426643 -0.506642
0.413345 -0.406643 -0.506642
0.433345 -0.426643 -0.506642
0.433345 -0.406643 -0.506642
0.413345 -0.386643 -0.506642
0.413345 -0.366643 -0.506642
0.433345 -0.386643 -0.506642
0.433345 -0.366643 -0.506642
0.453344 -0.426643 -0.506642
0.453344 -0.406643 -0.506642
0.473345 -0.426643 -0.506642
0.473345 -0.406643 -0.506642
0.453344 -0.386643 -0.506642
0.453344 -0.366643 -0.506642
0.473345 -0.386643 -0.506642
0.473345 -0.366643 -0.506642
0.333344 -0.346643 -0.506642
0.333344 -0.326643 -0.506642
0.353345 -0.346643 -0.506642
0.353345 -0.326643 -0.506642
0.333344 -0.306643 -0.506642
0.333344 -0.286643 -0.506642
0.353345 -0.306643 -0.506642
0.353345 -0.286643 -0.506642
0.373345 -0.346643 -0.506642
0.373345 -0.326643 -0.506642
0.393344 -0.346643 -0.506642
0.393344 -0.326643 -0.506642
0.373345 -0.306643 -0.506642
0.373345 -0.286643 -0.506642
0.393344 -0.306643 -0.506642
0.393344 -0.286643 -0.506642
0.333344 -0.266643 -0.506642
0.333344 -0.246643 -0.506642
0.353345 -0.266643 -0.506642
0.353345 -0.246643 -0.506642
0.333344 -0.226643 -0.506642
0.333344 -0.206643 -0.506642
0.353345 -0.226643 -0.506642
0.353345 -0.206643 -0.506642
0.373345 -0.266643 -0.506642
0.373345 -0.246643 -0.506642
0.393344 -0.266643 -0.506642
0.393344 -0.246643 -0.506642
0.373345 -0.226643 -0.506642
0.373345 -0.206643 -0.506642
0.393344 -0.226643 -0.506642
0.393344 -0.206643 -0.506642
0.413345 -0.346643 -0.506642
0.413345 -0.326643 -0.506642
0.433345 -0.346643 -0.506642
0.433345 -0.326643 -0.506642
0.413345 -0.306643 -0.506642
0.413345 -0.286643 -0.506642
0.433345 -0.306643 -0.506642
0.433345 -0.286643 -0.506642
0.453344 -0.346643 -0.506642
0.453344 -0.326643 -0.506642
0.473345 -0.346643 -0.506642
0.473345 -0.326643 -0.506642
0.453344 -0.306643 -0.506642
0.453344 -0.286643 -0.506642
0.473345 -0.306643 -0.506642
0.473345 -0.286643 -0.506642
0.413345 -0.266643 -0.506642
0.413345 -0.246643 -0.506642
0.433345 -0.266643 -0.506642
0.433345 -0.246643 -0.506642
0.413345 -0.226643 -0.506642
0.413345 -0.206643 -0.506642
0.433345 -0.226643 -0.506642
0.433345 -0.206643 -0.506642
0.453344 -0.266643 -0.506642
0.453344 -0.246643 -0.506642
0.473345 -0.266643 -0.506642
0.473345 -0.246643 -0.506642
0.453344 -0.226643 -0.506642
0.453344 -0.206643 -0.506642
0.473345 -0.226643 -0.506642
0.473345 -0.206643 -0.506642
0.173345 -0.186643 -0.506642
0.173345 -0.166643 -0.506642
0.193345 -0.186643 -0.506642
0.193345 -0.166643 -0.506642
0.173345 -0.146643 -0.506642
0.173345 -0.126643 -0.506642
0.193345 -0.146643 -0.506642
0.193345 -0.126643 -0.506642
0.213344 -0.186643 -0.506642
0.213344 -0.166643 -0.506642
0.233345 -0.186643 -0.506642
0.233345 -0.166643 -0.506642
0.213344 -0.146643 -0.506642
0.213344 -0.126643 -0.506642
0.233345 -0.146643 -0.506642
0.233345 -0.126643 -0.506642
0.173345 -0.106643 -0.506642
0.173345 -0.086643 -0.506642
0.193345 -0.106643 -0.506642
0.193345 -0.086643 -0.506642
0.173345 -0.066643 -0.506642
0.173345 -0.046643 -0.506642
0.193345 -0.066643 -0.506642
0.193345 -0.046643 -0.506642
0.213344 -0.106643 -0.506642
0.213344 -0.086643 -0.506642
0.233345 -0.106643 -0.506642
0.233345 -0.086643 -0.506642
0.213344 -0.066643 -0.506642
0.213344 -0.046643 -0.506642
0.233345 -0.066643 -0.506642
0.233345 -0.046643 -0.506642
0.253345 -0.186643 -0.506642
0.253345 -0.166643 -0.506642
0.273344 -0.186643 -0.506642
0.273344 -0.166643 -0.506642
0.253345 -0.146643 -0.506642
0.253345 -0.126643 -0.506642
0.273344 -0.146643 -0.506642
0.273344 -0.126643 -0.506642
0.293345 -0.186643 -0.506642
0.293345 -0.166643 -0.506642
0.313345 -0.186643 -0.506642
0.313345 -0.166643 -0.506642
0.293345 -0.146643 -0.506642
0.293345 -0.126643 -0.506642
0.313345 -0.146643 -0.506642
0.313345 -0.126643 -0.506642
0.253345 -0.106643 -0.506642
0.253345 -0.086643 -0.506642
0.273344 -0.106643 -0.506642
0.273344 -0.086643 -0.506642
0.253345 -0.066643 -0.506642
0.253345 -0.046643 -0.506642
0.273344 -0.066643 -0.506642
0.273344 -0.046643 -0.506642
0.293345 -0.106643 -0.506642
0.293345 -0.086643 -0.506642
0.313345 -0.106643 -0.506642
0.313345 -0.086643 -0.506642
0.293345 -0.066643 -0.506642
0.293345 -0.046643 -0.506642
0.313345 -0.066643 -0.506642
0.313345 -0.046643 -0.506642
0.173345 -0.026643 -0.506642
0.173345 -0.006643 -0.506642
0.193345 -0.026643 -0.506642
0.193345 -0.006643 -0.506642
0.173345 0.013357 -0.506642
0.173345 0.033357 -0.506642
0.193345 0.013357 -0.506642
0.193345 0.033357 -0.506642
0.213344 -0.026643 -0.506642
0.213344 -0.006643 -0.506642
0.233345 -0.026643 -0.506642
0.233345 -0.006643 -0.506642
0.213344 0.013357 -0.506642
0.213344 0.033357 -0.506642
0.233345 0.013357 -0.506642
0.233345 0.033357 -0.506642
0.173345 0.053357 -0.506642
0.173345 0.073357 -0.506642
0.193345 0.053357 -0.506642
0.193345 0.073357 -0.506642
0.173345 0.093357 -0.506642
0.173345 0.113357 -0.506642
0.193345 0.093357 -0.506642
0.193345 0.113357 -0.506642
0.213344 0.053357 -0.506642
0.213344 0.073357 -0.506642
0.233345 0.053357 -0.506642
0.233345 0.073357 -0.506642
0.213344 0.093357 -0.506642
0.213344 0.113357 -0.506642
0.233345 0.093357 -0.506642
0.233345 0.113357 -0.506642
0.253345 -0.026643 -0.506642
0.253345 -0.006643 -0.506642
0.273344 -0.026643 -0.506642
0.273344 -0.006643 -0.506642
0.253345 0.013357 -0.506642
0.253345 0.033357 -0.506642
0.273344 0.013357 -0.506642
0.273344 0.033357 -0.506642
0.293345 -0.026643 -0.506642
0.293345 -0.006643 -0.506642
0.313345 -0.026643 -0.506642
0.313345 -0.006643 -0.506642
0.293345 0.013357 -0.506642
0.293345 0.033357 -0.506642
0.313345 0.013357 -0.506642
0.313345 0.033357 -0.506642
0.253345 0.053357 -0.506642
0.253345 0.073357 -0.506642
0.273344 0.053357 -0.506642
0.273344 0.073357 -0.506642
0.253345 0.093357 -0.506642
0.253345 0.113357 -0.506642
0.273344 0.093357 -0.506642
0.273344 0.113357 -0.506642
0.293345 0.053357 -0.506642
0.293345 0.073357 -0.506642
0.313345 0.053357 -0.506642
0.313345 0.073357 -0.506642
0.293345 0.093357 -0.506642
0.293345 0.113357 -0.506642
0.313345 0.093357 -0.506642
0.313345 0.113357 -0.506642
0.333344 -0.186643 -0.506642
0.333344 -0.166643 -0.506642
0.353345 -0.186643 -0.506642
0.353345 -0.166643 -0.506642
0.333344 -0.146643 -0.506642
0.333344 -0.126643 -0.506642
0.353345 -0.146643 -0.506642
0.353345 -0.126643 -0.506642
0.373345 -0.186643 -0.506642
0.373345 -0.166643 -0.506642
0.393344 -0.186643 -0.506642
0.393344 -0.166643 -0.506642
0.373345 -0.146643 -0.506642
0.373345 -0.126643 -0.506642
0.393344 -0.146643 -0.506642
0.393344 -0.126643 -0.506642
0.333344 -0.106643 -0.506642
0.333344 -0.086643 -0.506642
0.353345 -0.106643 -0.506642
0.353345 -0.086643 -0.506642
0.333344 -0.066643 -0.506642
0.333344 -0.046643 -0.506642
0.353345 -0.066643 -0.506642
0.353345 -0.046643 -0.506642
0.373345 -0.106643 -0.506642
0.373345 -0.086643 -0.506642
0.393344 -0.106643 -0.506642
0.393344 -0.086643 -0.506642
0.373345 -0.066643 -0.506642
0.373345 -0.046643 -0.506642
0.393344 -0.066643 -0.506642
0.393344 -0.046643 -0.506642
0.413345 -0.186643 -0.506642
0.413345 -0.166643 -0.506642
0.433345 -0.186643 -0.506642
0.433345 -0.166643 -0.506642
0.413345 -0.146643 -0.506642
0.413345 -0.126643 -0.506642
0.433345 -0.146643 -0.506642
0.433345 -0.126643 -0.506642
0.453344 -0.186643 -0.506642
0.453344 -0.166643 -0.506642
0.473345 -0.186643 -0.506642
0.473345 -0.166643 -0.506642
0.453344 -0.146643 -0.506642
0.453344 -0.126643 -0.506642
0.473345 -0.146643 -0.506642
0.473345 -0.126643 -0.506642
0.413345 -0.106643 -0.506642
0.413345 -0.086643 -0.506642
0.433345 -0.106643 -0.506642
0.433345 -0.086643 -0.506642
0.413345 -0.066643 -0.506642
0.413345 -0.046643 -0.506642
0.433345 -0.066643 -0.506642
0.433345 -0.046643 -0.506642
0.453344 -0.106643 -0.506642
0.453344 -0.086643 -0.506642
0.473345 -0.106643 -0.506642
0.473345 -0.086643 -0.506642
0.453344 -0.066643 -0.506642
0.453344 -0.046643 -0.506642
0.473345 -0.066643 -0.506642
0.473345 -0.046643 -0.506642
0.333344 -0.026643 -0.506642
0.333344 -0.006643 -0.506642
0.353345 -0.026643 -0.506642
0.353345 -0.006643 -0.506642
0.333344 0.013357 -0.506642
0.333344 0.033357 -0.506642
0.353345 0.013357 -0.506642
0.353345 0.033357 -0.506642
0.373345 -0.026643 -0.506642
0.373345 -0.006643 -0.506642
0.393344 -0.026643 -0.506642
0.393344 -0.006643 -0.506642
0.373345 0.013357 -0.506642
0.373345 0.033357 -0.506642
0.393344 0.013357 -0.506642
0.393344 0.033357 -0.506642
0.333344 0.053357 -0.506642
0.333344 0.073357 -0.506642
0.353345 0.053357 -0.506642
0.353345 0.073357 -0.506642
0.333344 0.093357 -0.506642
0.333344 0.113357 -0.506642
0.353345 0.093357 -0.506642
0.353345 0.113357 -0.506642
0.373345 0.053357 -0.506642
0.373345 0.073357 -0.506642
0.393344 0.053357 -0.506642
0.393344 0.073357 -0.506642
0.373345 0.093357 -0.506642
0.373345 0.113357 -0.506642
0.393344 0.093357 -0.506642
0.393344 0.113357 -0.506642
0.413345 -0.026643 -0.506642
0.413345 -0.006643 -0.506642
0.433345 -0.026643 -0.506642
0.433345 -0.006643 -0.506642
0.413345 0.013357 -0.506642
0.413345 0.033357 -0.506642
0.433345 0.013357 -0.506642
0.433345 0.033357 -0.506642
0.453344 -0.026643 -0.506642
0.453344 -0.006643 -0.506642
0.473345 -0.026643 -0.506642
0.473345 -0.006643 -0.506642
0.453344 0.013357 -0.506642
0.453344 0.033357 -0.506642
0.473345 0.013357 -0.506642
0.473345 0.033357 -0.506642
0.413345 0.053357 -0.506642
0.413345 0.073357 -0.506642
0.433345 0.053357 -0.506642
0.433345 0.073357 -0.506642
0.413345 0.093357 -0.506642
0.413345 0.113357 -0.506642
0.433345 0.093357 -0.506642
0.433345 0.113357 -0.506642
0.453344 0.053357 -0.506642
0.453344 0.073357 -0.506642
0.473345 0.053357 -0.506642
0.473345 0.073357 -0.506642
0.453344 0.093357 -0.506642
0.453344 0.113357 -0.506642
0.473345 0.093357 -0.506642
0.473345 0.113357 -0.506642
0.493345 -0.506643 -0.506642
0.493345 -0.506643 -0.486642
0.493345 -0.486643 -0.506642
0.493345 -0.486643 -0.486642
0.493345 -0.466643 -0.506642
0.493345 -0.466643 -0.486642
0.493345 -0.446643 -0.506642
0.493345 -0.446643 -0.486642
0.493345 -0.426643 -0.506642
0.493345 -0.426643 -0.486642
0.493345 -0.406643 -0.506642
0.493345 -0.406643 -0.486642
0.493345 -0.386643 -0.506642
0.493345 -0.386643 -0.486642
0.493345 -0.366643 -0.506642
0.493345 -0.366643 -0.486642
0.493345 -0.346643 -0.506642
0.493345 -0.346643 -0.486642
0.493345 -0.326643 -0.506642
0.493345 -0.326643 -0.486642
0.493345 -0.306643 -0.506642
0.493345 -0.306643 -0.486642
0.493345 -0.286643 -0.506642
0.493345 -0.286643 -0.486642
0.493345 -0.266643 -0.506642
0.493345 -0.266643 -0.486642
0.493345 -0.246643 -0.506642
0.493345 -0.246643 -0.486642
0.493345 -0.226643 -0.506642
0.493345 -0.226643 -0.486642
0.493345 -0.206643 -0.506642
0.493345 -0.206643 -0.486642
0.493345 -0.186643 -0.506642
0.493345 -0.186643 -0.486642
0.493345 -0.166643 -0.506642
0.493345 -0.166643 -0.486642
0.493345 -0.146643 -0.506642
0.493345 -0.146643 -0.486642
0.493345 -0.126643 -0.506642
0.493345 -0.126643 -0.486642
0.493345 -0.106643 -0.506642
0.493345 -0.106643 -0.486642
0.493345 -0.086643 -0.506642
0.493345 -0.086643 -0.486642
0.493345 -0.066643 -0.506642
0.493345 -0.066643 -0.486642
0.493345 -0.046643 -0.506642
0.493345 -0.046643 -0.486642
0.493345 -0.026643 -0.506642
0.493345 -0.026643 -0.486642
0.493345 -0.006643 -0.506642
0.493345 -0.006643 -0.486642
0.493345 0.013357 -0.506642
0.493345 0.013357 -0.486642
0.493345 0.033357 -0.506642
0.493345 0.033357 -0.486642
0.493345 0.053357 -0.506642
0.493345 0.053357 -0.486642
0.493345 0.073357 -0.506642
0.493345 0.073357 -0.486642
0.493345 0.093357 -0.506642
0.493345 0.093357 -0.486642
0.493345 0.113357 -0.506642
0.493345 0.113357 -0.486642
0.173345 0.133357 -0.506642
0.173345 0.153357 -0.506642
0.193345 0.133357 -0.506642
0.193345 0.153357 -0.506642
0.173345 0.173357 -0.506642
0.173345 0.193357 -0.506642
0.193345 0.173357 -0.506642
0.193345 0.193357 -0.506642
0.213344 0.133357 -0.506642
0.213344 0.153357 -0.506642
0.233345 0.133357 -0.506642
0.233345 0.153357 -0.506642
0.213344 0.173357 -0.506642
0.213344 0.193357 -0.506642
0.233345 0.173357 -0.506642
0.233345 0.193357 -0.506642
0.173345 0.213357 -0.506642
0.173345 0.233357 -0.506642
0.193345 0.213357 -0.506642
0.193345 0.233357 -0.506642
0.173345 0.253357 -0.506642
0.173345 0.273357 -0.506642
0.193345 0.253357 -0.506642
0.193345 0.273357 -0.506642
0.213344 0.213357 -0.506642
0.213344 0.233357 -0.506642
0.233345 0.213357 -0.506642
0.233345 0.233357 -0.506642
0.213344 0.253357 -0.506642
0.213344 0.273357 -0.506642
0.233345 0.253357 -0.506642
0.233345 0.273357 -0.506642
0.253345 0.133357 -0.506642
0.253345 0.153357 -0.506642
0.273344 0.133357 -0.506642
0.273344 0.153357 -0.506642
0.253345 0.173357 -0.506642
0.253345 0.193357 -0.506642
0.273344 0.173357 -0.506642
0.273344 0.193357 -0.506642
0.293345 0.133357 -0.506642
0.293345 0.153357 -0.506642
0.313345 0.133357 -0.506642
0.313345 0.153357 -0.506642
0.293345 0.173357 -0.506642
0.293345 0.193357 -0.506642
0.313345 0.173357 -0.506642
0.313345 0.193357 -0.506642
0.253345 0.213357 -0.506642
0.253345 0.233357 -0.506642
0.273344 0.213357 -0.506642
0.273344 0.233357 -0.506642
0.253345 0.253357 -0.506642
0.253345 0.273357 -0.506642
0.273344 0.253357 -0.506642
0.273344 0.273357 -0.506642
0.293345 0.213357 -0.506642
0.293345 0.233357 -0.506642
0.313345 0.213357 -0.506642
0.313345 0.233357 -0.506642
0.293345 0.253357 -0.506642
0.293345 0.273357 -0.506642
0.313345 0.253357 -0.506642
0.313345 0.273357 -0.506642
0.173345 0.293357 -0.506642
0.173345 0.313357 -0.506642
0.193345 0.293357 -0.506642
0.193345 0.313357 -0.506642
0.173345 0.333357 -0.506642
0.173345 0.353357 -0.506642
0.193345 0.333357 -0.506642
0.193345 0.353357 -0.506642
0.213344 0.293357 -0.506642
0.213344 0.313357 -0.506642
0.233345 0.293357 -0.506642
0.233345 0.313357 -0.506642
0.213344 0.333357 -0.506642
0.213344 0.353357 -0.506642
0.233345 0.333357 -0.506642
0.233345 0.353357 -0.506642
0.173345 0.373357 -0.506642
0.173345 0.393357 -0.506642
0.193345 0.373357 -0.506642
0.193345 0.393357 -0.506642
0.173345 0.413357 -0.506642
0.173345 0.433357 -0.506642
0.193345 0.413357 -0.506642
0.193345 0.433357 -0.506642
0.213344 0.373357 -0.506642
0.213344 0.393357 -0.506642
0.233345 0.373357 -0.506642
0.233345 0.393357 -0.506642
0.213344 0.413357 -0.506642
0.213344 0.433357 -0.506642
0.233345 0.413357 -0.506642
0.233345 0.433357 -0.506642
0.253345 0.293357 -0.506642
0.253345 0.313357 -0.506642
0.273344 0.293357 -0.506642
0.273344 0.313357 -0.506642
0.253345 0.333357 -0.506642
0.253345 0.353357 -0.506642
0.273344 0.333357 -0.506642
0.273344 0.353357 -0.506642
0.293345 0.293357 -0.506642
0.293345 0.313357 -0.506642
0.313345 0.293357 -0.506642
0.313345 0.313357 -0.506642
0.293345 0.333357 -0.506642
0.293345 0.353357 -0.506642
0.313345 0.333357 -0.506642
0.313345 0.353357 -0.506642
0.253345 0.373357 -0.506642
0.253345 0.393357 -0.506642
0.273344 0.373357 -0.506642
0.273344 0.393357 -0.506642
0.253345 0.413357 -0.506642
0.253345 0.433357 -0.506642
0.273344 0.413357 -0.506642
0.273344 0.433357 -0.506642
0.293345 0.373357 -0.506642
0.293345 0.393357 -0.506642
0.313345 0.373357 -0.506642
0.313345 0.393357 -0.506642
0.293345 0.413357 -0.506642
0.293345 0.433357 -0.506642
0.313345 0.413357 -0.506642
0.313345 0.433357 -0.506642
0.333344 0.133357 -0.506642
0.333344 0.153357 -0.506642
0.353345 0.133357 -0.506642
0.353345 0.153357 -0.506642
0.333344 0.173357 -0.506642
0.333344 0.193357 -0.506642
0.353345 0.173357 -0.506642
0.353345 0.193357 -0.506642
0.373345 0.133357 -0.506642
0.373345 0.153357 -0.506642
0.393344 0.133357 -0.506642
0.393344 0.153357 -0.506642
0.373345 0.173357 -0.506642
0.373345 0.193357 -0.506642
0.393344 0.173357 -0.506642
0.393344 0.193357 -0.506642
0.333344 0.213357 -0.506642
0.333344 0.233357 -0.506642
0.353345 0.213357 -0.506642
0.353345 0.233357 -0.506642
0.333344 0.253357 -0.506642
0.333344 0.273357 -0.506642
0.353345 0.253357 -0.506642
0.353345 0.273357 -0.506642
0.373345 0.213357 -0.506642
0.373345 0.233357 -0.506642
0.393344 0.213357 -0.506642
0.393344 0.233357 -0.506642
0.373345 0.253357 -0.506642
0.373345 0.273357 -0.506642
0.393344 0.253357 -0.506642
0.393344 0.273357 -0.506642
0.413345 0.133357 -0.506642
0.413345 0.153357 -0.506642
0.433345 0.133357 -0.506642
0.433345 0.153357 -0.506642
0.413345 0.173357 -0.506642
0.413345 0.193357 -0.506642
0.433345 0.173357 -0.506642
0.433345 0.193357 -0.506642
0.453344 0.133357 -0.506642
0.453344 0.153357 -0.506642
0.473345 0.133357 -0.506642
0.473345 0.153357 -0.506642
0.453344 0.173357 -0.506642
0.453344 0.193357 -0.506642
0.473345 0.173357 -0.506642
0.473345 0.193357 -0.506642
0.413345 0.213357 -0.506642
0.413345 0.233357 -0.506642
0.433345 0.213357 -0.506642
0.433345 0.233357 -0.506642
0.413345 0.253357 -0.506642
0.413345 0.273357 -0.506642
0.433345 0.253357 -0.506642
0.433345 0.273357 -0.506642
0.453344 0.213357 -0.506642
0.453344 0.233357 -0.506642
0.473345 0.213357 -0.506642
0.473345 0.233357 -0.506642
0.453344 0.253357 -0.506642
0.453344 0.273357 -0.506642
0.473345 0.253357 -0.506642
0.473345 0.273357 -0.506642
0.333344 0.293357 -0.506642
0.333344 0.313357 -0.506642
0.353345 0.293357 -0.506642
0.353345 0.313357 -0.506642
0.333344 0.333357 -0.506642
0.333344 0.353357 -0.506642
0.353345 0.333357 -0.506642
0.353345 0.353357 -0.506642
0.373345 0.293357 -0.506642
0.373345 0.313357 -0.506642
0.393344 0.293357 -0.506642
0.393344 0.313357 -0.506642
0.373345 0.333357 -0.506642
0.373345 0.353357 -0.506642
0.393344 0.333357 -0.506642
0.393344 0.353357 -0.506642
0.333344 0.373357 -0.506642
0.333344 0.393357 -0.506642
0.353345 0.373357 -0.506642
0.353345 0.393357 -0.506642
0.333344 0.413357 -0.506642
0.333344 0.433357 -0.506642
0.353345 0.413357 -0.506642
0.353345 0.433357 -0.506642
0.373345 0.373357 -0.506642
0.373345 0.393357 -0.506642
0.393344 0.373357 -0.506642
0.393344 0.393357 -0.506642
0.373345 0.413357 -0.506642
0.373345 0.433357 -0.506642
0.393344 0.413357 -0.506642
0.393344 0.433357 -0.506642
0.413345 0.293357 -0.506642
0.413345 0.313357 -0.506642
0.433345 0.293357 -0.506642
0.433345 0.313357 -0.506642
0.413345 0.333357 -0.506642
0.413345 0.353357 -0.506642
0.433345 0.333357 -0.506642
0.433345 0.353357 -0.506642
0.453344 0.293357 -0.506642
0.453344 0.313357 -0.506642
0.473345 0.293357 -0.506642
0.473345 0.313357 -0.506642
0.453344 0.333357 -0.506642
0.453344 0.353357 -0.506642
0.473345 0.333357 -0.506642
0.473345 0.353357 -0.506642
0.413345 0.373357 -0.506642
0.413345 0.393357 -0.506642
0.433345 0.373357 -0.506642
0.433345 0.393357 -0.506642
0.413345 0.413357 -0.506642
0.413345 0.433357 -0.506642
0.433345 0.413357 -0.506642
0.433345 0.433357 -0.506642
0.453344 0.373357 -0.506642
0.453344 0.393357 -0.506642
0.473345 0.373357 -0.506642
0.473345 0.393357 -0.506642
0.453344 0.413357 -0.506642
0.453344 0.433357 -0.506642
0.473345 0.413357 -0.506642
0.473345 0.433357 -0.506642
0.173345 0.453357 -0.506642
0.173345 0.473357 -0.506642
0.193345 0.453357 -0.506642
0.193345 0.473357 -0.506642
0.173345 0.493357 -0.506642
0.173345 0.493357 -0.486642
0.193345 0.493357 -0.506642
0.193345 0.493357 -0.486642
0.213344 0.453357 -0.506642
0.213344 0.473357 -0.506642
0.233345 0.453357 -0.506642
0.233345 0.473357 -0.506642
0.213344 0.493357 -0.506642
0.213344 0.493357 -0.486642
0.233345 0.493357 -0.506642
0.233345 0.493357 -0.486642
0.253345 0.453357 -0.506642
0.253345 0.473357 -0.506642
0.273344 0.453357 -0.506642
0.273344 0.473357 -0.506642
0.253345 0.493357 -0.506642
0.253345 0.493357 -0.486642
0.273344 0.493357 -0.506642
0.273344 0.493357 -0.486642
0.293345 0.453357 -0.506642
0.293345 0.473357 -0.506642
0.313345 0.453357 -0.506642
0.313345 0.473357 -0.506642
0.293345 0.493357 -0.506642
0.293345 0.493357 -0.486642
0.313345 0.493357 -0.506642
0.313345 0.493357 -0.486642
0.333344 0.453357 -0.506642
0.333344 0.473357 -0.506642
0.353345 0.453357 -0.506642
0.353345 0.473357 -0.506642
0.333344 0.493357 -0.506642
0.333344 0.493357 -0.486642
0.353345 0.493357 -0.506642
0.353345 0.493357 -0.486642
0.373345 0.453357 -0.506642
0.373345 0.473357 -0.506642
0.393344 0.453357 -0.506642
0.393344 0.473357 -0.506642
0.373345 0.493357 -0.506642
0.373345 0.493357 -0.486642
0.393344 0.493357 -0.506642
0.393344 0.493357 -0.486642
0.413345 0.453357 -0.506642
0.413345 0.473357 -0.506642
0.433345 0.453357 -0.506642
0.433345 0.473357 -0.506642
0.413345 0.493357 -0.506642
0.413345 0.493357 -0.486642
0.433345 0.493357 -0.506642
0.433345 0.493357 -0.486642
0.453344 0.453357 -0.506642
0.453344 0.473357 -0.506642
0.473345 0.453357 -0.506642
0.473345 0.473357 -0.506642
0.453344 0.493357 -0.506642
0.453344 0.493357 -0.486642
0.473345 0.493357 -0.506642
0.473345 0.493357 -0.486642
0.493345 0.133357 -0.506642
0.493345 0.133357 -0.486642
0.493345 0.153357 -0.506642
0.493345 0.153357 -0.486642
0.493345 0.173357 -0.506642
0.493345 0.173357 -0.486642
0.493345 0.193357 -0.506642
0.493345 0.193357 -0.486642
0.493345 0.213357 -0.506642
0.493345 0.213357 -0.486642
0.493345 0.233357 -0.506642
0.493345 0.233357 -0.486642
0.493345 0.253357 -0.506642
0.493345 0.253357 -0.486642
0.493345 0.273357 -0.506642
0.493345 0.273357 -0.486642
0.493345 0.293357 -0.506642
0.493345 0.293357 -0.486642
0.493345 0.313357 -0.506642
0.493345 0.313357 -0.486642
0.493345 0.333357 -0.506642
0.493345 0.333357 -0.486642
0.493345 0.353357 -0.506642
0.493345 0.353357 -0.486642
0.493345 0.373357 -0.506642
0.493345 0.373357 -0.486642
0.493345 0.393357 -0.506642
0.493345 0.393357 -0.486642
0.493345 0.413357 -0.506642
0.493345 0.413357 -0.486642
0.493345 0.433357 -0.506642
0.493345 0.433357 -0.486642
0.493345 0.453357 -0.506642
0.493345 0.453357 -0.486642
0.493345 0.473357 -0.506642
0.493345 0.473357 -0.486642
0.493345 0.493357 -0.506642
0.493345 0.493357 -0.486642
-0.506656 -0.506643 -0.466642
-0.506656 -0.506643 -0.446642
-0.506656 -0.486643 -0.466642
-0.506656 -0.486643 -0.446642
-0.486656 -0.506643 -0.466642
-0.486656 -0.506643 -0.446642
-0.506656 -0.506643 -0.426642
-0.506656 -0.506643 -0.406642
-0.506656 -0.486643 -0.426642
-0.506656 -0.486643 -0.406642
-0.486656 -0.506643 -0.426642
-0.486656 -0.506643 -0.406642
-0.506656 -0.466643 -0.466642
-0.506656 -0.466643 -0.446642
-0.506656 -0.446643 -0.466642
-0.506656 -0.446643 -0.446642
-0.506656 -0.466643 -0.426642
-0.506656 -0.466643 -0.406642
-0.506656 -0.446643 -0.426642
-0.506656 -0.446643 -0.406642
-0.506656 -0.506643 -0.386642
-0.506656 -0.506643 -0.366642
-0.506656 -0.486643 -0.386642
-0.506656 -0.486643 -0.366642
-0.486656 -0.506643 -0.386642
-0.486656 -0.506643 -0.366642
-0.506656 -0.506643 -0.346642
-0.506656 -0.506643 -0.326642
-0.506656 -0.486643 -0.346642
-0.506656 -0.486643 -0.326642
-0.486656 -0.506643 -0.346642
-0.486656 -0.506643 -0.326642
-0.506656 -0.466643 -0.386642
-0.506656 -0.466643 -0.366642
-0.506656 -0.446643 -0.386642
-0.506656 -0.446643 -0.366642
-0.506656 -0.466643 -0.346642
-0.506656 -0.466643 -0.326642
-0.506656 -0.446643 -0.346642
-0.506656 -0.446643 -0.326642
-0.506656 -0.426643 -0.466642
-0.506656 -0.426643 -0.446642
-0.506656 -0.406643 -0.466642
-0.506656 -0.406643 -0.446642
-0.506656 -0.426643 -0.426642
-0.506656 -0.426643 -0.406642
-0.506656 -0.406643 -0.426642
-0.506656 -0.406643 -0.406642
-0.506656 -0.386643 -0.466642
-0.506656 -0.386643 -0.446642
-0.506656 -0.366643 -0.466642
-0.506656 -0.366643 -0.446642
-0.506656 -0.386643 -0.426642
-0.506656 -0.386643 -0.406642
-0.506656 -0.366643 -0.426642
-0.506656 -0.366643 -0.406642
-0.506656 -0.426643 -0.386642
-0.506656 -0.426643 -0.366642
-0.506656 -0.406643 -0.386642
-0.506656 -0.406643 -0.366642
-0.506656 -0.426643 -0.346642
-0.506656 -0.426643 -0.326642
-0.506656 -0.406643 -0.346642
-0.506656 -0.406643 -0.326642
-0.506656 -0.386643 -0.386642
-0.506656 -0.386643 -0.366642
-0.506656 -0.366643 -0.386642
-0.506656 -0.366643 -0.366642
-0.506656 -0.386643 -0.346642
-0.506656 -0.386643 -0.326642
-0.506656 -0.366643 -0.346642
-0.506656 -0.366643 -0.326642
-0.506656 -0.506643 -0.306642
-0.506656 -0.506643 -0.286642
-0.506656 -0.486643 -0.306642
-0.506656 -0.486643 -0.286642
-0.486656 -0.506643 -0.306642
-0.486656 -0.506643 -0.286642
-0.506656 -0.506643 -0.266642
-0.506656 -0.506643 -0.246642
-0.506656 -0.486643 -0.266642
-0.506656 -0.486643 -0.246642
-0.486656 -0.506643 -0.266642
-0.486656 -0.506643 -0.246642
-0.506656 -0.466643 -0.306642
-0.506656 -0.466643 -0.286642
-0.506656 -0.446643 -0.306642
-0.506656 -0.446643 -0.286642
-0.506656 -0.466643 -0.266642
-0.506656 -0.466643 -0.246642
-0.506656 -0.446643 -0.266642
-0.506656 -0.446643 -0.246642
-0.506656 -0.506643 -0.226642
-0.506656 -0.506643 -0.206642
-0.506656 -0.486643 -0.226642
-0.506656 -0.486643 -0.206642
-0.486656 -0.506643 -0.226642
-0.486656 -0.506643 -0.206642
-0.506656 -0.506643 -0.186642
-0.506656 -0.506643 -0.166642
-0.506656 -0.486643 -0.186642
-0.506656 -0.486643 -0.166642
-0.486656 -0.506643 -0.186642
-0.486656 -0.506643 -0.166642
-0.506656 -0.466643 -0.226642
-0.506656 -0.466643 -0.206642
-0.506656 -0.446643 -0.226642
-0.506656 -0.446643 -0.206642
-0.506656 -0.466643 -0.186642
-0.506656 -0.466643 -0.166642
-0.506656 -0.446643 -0.186642
-0.506656 -0.446643 -0.166642
-0.506656 -0.426643 -0.306642
-0.506656 -0.426643 -0.286642
-0.506656 -0.406643 -0.306642
-0.506656 -0.406643 -0.286642
-0.506656 -0.426643 -0.266642
-0.506656 -0.426643 -0.246642
-0.506656 -0.406643 -0.266642
-0.506656 -0.406643 -0.246642
-0.506656 -0.386643 -0.306642
-0.506656 -0.386643 -0.286642
-0.506656 -0.366643 -0.306642
-0.506656 -0.366643 -0.286642
-0.506656 -0.386643 -0.266642
-0.506656 -0.386643 -0.246642
-0.506656 -0.366643 -0.266642
-0.506656 -0.366643 -0.246642
-0.506656 -0.426643 -0.226642
-0.506656 -0.426643 -0.206642
-0.506656 -0.406643 -0.226642
-0.506656 -0.406643 -0.206642
-0.506656 -0.426643 -0.186642
-0.506656 -0.426643 -0.166642
-0.506656 -0.406643 -0.186642
-0.506656 -0.406643 -0.166642
-0.506656 -0.386643 -0.226642
-0.506656 -0.386643 -0.206642
-0.506656 -0.366643 -0.226642
-0.506656 -0.366643 -0.206642
-0.506656 -0.386643 -0.186642
-0.506656 -0.386643 -0.166642
-0.506656 -0.366643 -0.186642
-0.506656 -0.366643 -0.166642
-0.506656 -0.346643 -0.466642
-0.506656 -0.346643 -0.446642
-0.506656 -0.326643 -0.466642
-0.506656 -0.326643 -0.446642
-0.506656 -0.346643 -0.426642
-0.506656 -0.346643 -0.406642
-0.506656 -0.326643 -0.426642
-0.506656 -0.326643 -0.406642
-0.506656 -0.306643 -0.466642
-0.506656 -0.306643 -0.446642
-0.506656 -0.286643 -0.466642
-0.506656 -0.286643 -0.446642
-0.506656 -0.306643 -0.426642
-0.506656 -0.306643 -0.406642
-0.506656 -0.286643 -0.426642
-0.506656 -0.286643 -0.406642
-0.506656 -0.346643 -0.386642
-0.506656 -0.346643 -0.366642
-0.506656 -0.326643 -0.386642
-0.506656 -0.326643 -0.366642
-0.506656 -0.346643 -0.346642
-0.506656 -0.346643 -0.326642
-0.506656 -0.326643 -0.346642
-0.506656 -0.326643 -0.326642
-0.506656 -0.306643 -0.386642
-0.506656 -0.306643 -0.366642
-0.506656 -0.286643 -0.386642
-0.506656 -0.286643 -0.366642
-0.506656 -0.306643 -0.346642
-0.506656 -0.306643 -0.326642
-0.506656 -0.286643 -0.346642
-0.506656 -0.286643 -0.326642
-0.506656 -0.266643 -0.466642
-0.506656 -0.266643 -0.446642
-0.506656 -0.246643 -0.466642
-0.506656 -0.246643 -0.446642
-0.506656 -0.266643 -0.426642
-0.506656 -0.266643 -0.406642
-0.506656 -0.246643 -0.426642
-0.506656 -0.246643 -0.406642
-0.506656 -0.226643 -0.466642
-0.506656 -0.226643 -0.446642
-0.506656 -0.206643 -0.466642
-0.506656 -0.206643 -0.446642
-0.506656 -0.226643 -0.426642
-0.506656 -0.226643 -0.406642
-0.506656 -0.206643 -0.426642
-0.506656 -0.206643 -0.406642
-0.506656 -0.266643 -0.386642
-0.506656 -0.266643 -0.366642
-0.506656 -0.246643 -0.386642
-0.506656 -0.246643 -0.366642
-0.506656 -0.266643 -0.346642
-0.506656 -0.266643 -0.326642
-0.506656 -0.246643 -0.346642
-0.506656 -0.246643 -0.326642
-0.506656 -0.226643 -0.386642
-0.506656 -0.226643 -0.366642
-0.506656 -0.206643 -0.386642
-0.506656 -0.206643 -0.366642
-0.506656 -0.226643 -0.346642
-0.506656 -0.226643 -0.326642
-0.506656 -0.206643 -0.346642
-0.506656 -0.206643 -0.326642
-0.506656 -0.346643 -0.306642
-0.506656 -0.346643 -0.286642
-0.506656 -0.326643 -0.306642
-0.506656 -0.326643 -0.286642
-0.506656 -0.346643 -0.266642
-0.506656 -0.346643 -0.246642
-0.506656 -0.326643 -0.266642
-0.506656 -0.326643 -0.246642
-0.506656 -0.306643 -0.306642
-0.506656 -0.306643 -0.286642
-0.506656 -0.286643 -0.306642
-0.506656 -0.286643 -0.286642
-0.506656 -0.306643 -0.266642
-0.506656 -0.306643 -0.246642
-0.506656 -0.286643 -0.266642
-0.506656 -0.286643 -0.246642
-0.506656 -0.346643 -0.226642
-0.506656 -0.346643 -0.206642
-0.506656 -0.326643 -0.226642
-0.506656 -0.326643 -0.206642
-0.506656 -0.346643 -0.186642
-0.506656 -0.346643 -0.166642
-0.506656 -0.326643 -0.186642
-0.506656 -0.326643 -0.166642
-0.506656 -0.306643 -0.226642
-0.506656 -0.306643 -0.206642
-0.506656 -0.286643 -0.226642
-0.506656 -0.286643 -0.206642
-0.506656 -0.306643 -0.186642
-0.506656 -0.306643 -0.166642
-0.506656 -0.286643 -0.186642
-0.506656 -0.286643 -0.166642
-0.506656 -0.266643 -0.306642
-0.506656 -0.266643 -0.286642
-0.506656 -0.246643 -0.306642
-0.506656 -0.246643 -0.286642
-0.506656 -0.266643 -0.266642
-0.506656 -0.266643 -0.246642
-0.506656 -0.246643 -0.266642
-0.506656 -0.246643 -0.246642
-0.506656 -0.226643 -0.306642
-0.506656 -0.226643 -0.286642
-0.506656 -0.206643 -0.306642
-0.506656 -0.206643 -0.286642
-0.506656 -0.226643 -0.266642
-0.506656 -0.226643 -0.246642
-0.506656 -0.206643 -0.266642
-0.506656 -0.206643 -0.246642
-0.506656 -0.266643 -0.226642
-0.506656 -0.266643 -0.206642
-0.506656 -0.246643 -0.226642
-0.506656 -0.246643 -0.206642
-0.506656 -0.266643 -0.186642
-0.506656 -0.266643 -0.166642
-0.506656 -0.246643 -0.186642
-0.506656 -0.246643 -0.166642
-0.506656 -0.226643 -0.226642
-0.506656 -0.226643 -0.206642
-0.506656 -0.206643 -0.226642
-0.506656 -0.206643 -0.206642
-0.506656 -0.226643 -0.186642
-0.506656 -0.226643 -0.166642
-0.506656 -0.206643 -0.186642
-0.506656 -0.206643 -0.166642
-0.506656 -0.506643 -0.146642
-0.506656 -0.506643 -0.126642
-0.506656 -0.486643 -0.146642
-0.506656 -0.486643 -0.126642
-0.486656 -0.506643 -0.146642
-0.486656 -0.506643 -0.126642
-0.506656 -0.506643 -0.106642
-0.506656 -0.506643 -0.086642
-0.506656 -0.486643 -0.106642
-0.506656 -0.486643 -0.086642
-0.486656 -0.506643 -0.106642
-0.486656 -0.506643 -0.086642
-0.506656 -0.466643 -0.146642
-0.506656 -0.466643 -0.126642
-0.506656 -0.446643 -0.146642
-0.506656 -0.446643 -0.126642
-0.506656 -0.466643 -0.106642
-0.506656 -0.466643 -0.086642
-0.506656 -0.446643 -0.106642
-0.506656 -0.446643 -0.086642
-0.506656 -0.506643 -0.066642
-0.506656 -0.506643 -0.046642
-0.506656 -0.486643 -0.066642
-0.506656 -0.486643 -0.046642
-0.486656 -0.506643 -0.066642
-0.486656 -0.506643 -0.046642
-0.506656 -0.506643 -0.026642
-0.506656 -0.506643 -0.006642
-0.506656 -0.486643 -0.026642
-0.506656 -0.486643 -0.006642
-0.486656 -0.506643 -0.026642
-0.486656 -0.506643 -0.006642
-0.506656 -0.466643 -0.066642
-0.506656 -0.466643 -0.046642
-0.506656 -0.446643 -0.066642
-0.506656 -0.446643 -0.046642
-0.506656 -0.466643 -0.026642
-0.506656 -0.466643 -0.006642
-0.506656 -0.446643 -0.026642
-0.506656 -0.446643 -0.006642
-0.506656 -0.426643 -0.146642
-0.506656 -0.426643 -0.126642
-0.506656 -0.406643 -0.146642
-0.506656 -0.406643 -0.126642
-0.506656 -0.426643 -0.106642
-0.506656 -0.426643 -0.086642
-0.506656 -0.406643 -0.106642
-0.506656 -0.406643 -0.086642
-0.506656 -0.386643 -0.146642
-0.506656 -0.386643 -0.126642
-0.506656 -0.366643 -0.146642
-0.506656 -0.366643 -0.126642
-0.506656 -0.386643 -0.106642
-0.506656 -0.386643 -0.086642
-0.506656 -0.366643 -0.106642
-0.506656 -0.366643 -0.086642
-0.506656 -0.426643 -0.066642
-0.506656 -0.426643 -0.046642
-0.506656 -0.406643 -0.066642
-0.506656 -0.406643 -0.046642
-0.506656 -0.426643 -0.026642
-0.506656 -0.426643 -0.006642
-0.506656 -0.406643 -0.026642
-0.506656 -0.406643 -0.006642
-0.506656 -0.386643 -0.066642
-0.506656 -0.386643 -0.046642
-0.506656 -0.366643 -0.066642
-0.506656 -0.366643 -0.046642
-0.506656 -0.386643 -0.026642
-0.506656 -0.386643 -0.006642
-0.506656 -0.366643 -0.026642
-0.506656 -0.366643 -0.006642
-0.506656 -0.506643 0.013358
-0.506656 -0.506643 0.033358
-0.506656 -0.486643 0.013358
-0.506656 -0.486643 0.033358
-0.486656 -0.506643 0.013358
-0.486656 -0.506643 0.033358
-0.506656 -0.506643 0.053358
-0.506656 -0.506643 0.073358
-0.506656 -0.486643 0.053358
-0.506656 -0.486643 0.073358
-0.486656 -0.506643 0.053358
-0.486656 -0.506643 0.073358
-0.506656 -0.466643 0.013358
-0.506656 -0.466643 0.033358
-0.506656 -0.446643 0.013358
-0.506656 -0.446643 0.033358
-0.506656 -0.466643 0.053358
-0.506656 -0.466643 0.073358
-0.506656 -0.446643 0.053358
-0.506656 -0.446643 0.073358
-0.506656 -0.506643 0.093358
-0.506656 -0.506643 0.113358
-0.506656 -0.486643 0.093358
-0.506656 -0.486643 0.113358
-0.486656 -0.506643 0.093358
-0.486656 -0.506643 0.113358
-0.506656 -0.506643 0.133358
-0.506656 -0.506643 0.153358
-0.506656 -0.486643 0.133358
-0.506656 -0.486643 0.153358
-0.486656 -0.506643 0.133358
-0.486656 -0.506643 0.153358
-0.506656 -0.466643 0.093358
-0.506656 -0.466643 0.113358
-0.506656 -0.446643 0.093358
-0.506656 -0.446643 0.113358
-0.506656 -0.466643 0.133358
-0.506656 -0.466643 0.153358
-0.506656 -0.446643 0.133358
-0.506656 -0.446643 0.153358
-0.506656 -0.426643 0.013358
-0.506656 -0.426643 0.033358
-0.506656 -0.406643 0.013358
-0.506656 -0.406643 0.033358
-0.506656 -0.426643 0.053358
-0.506656 -0.426643 0.073358
-0.506656 -0.406643 0.053358
-0.506656 -0.406643 0.073358
-0.506656 -0.386643 0.013358
-0.506656 -0.386643 0.033358
-0.506656 -0.366643 0.013358
-0.506656 -0.366643 0.033358
-0.506656 -0.386643 0.053358
-0.506656 -0.386643 0.073358
-0.506656 -0.366643 0.053358
-0.506656 -0.366643 0.073358
-0.506656 -0.426643 0.093358
-0.506656 -0.426643 0.113358
-0.506656 -0.406643 0.093358
-0.506656 -0.406643 0.113358
-0.506656 -0.426643 0.133358
-0.506656 -0.426643 0.153358
-0.506656 -0.406643 0.133358
-0.506656 -0.406643 0.153358
-0.506656 -0.386643 0.093358
-0.506656 -0.386643 0.113358
-0.506656 -0.366643 0.093358
-0.506656 -0.366643 0.113358
-0.506656 -0.386643 0.133358
-0.506656 -0.386643 0.153358
-0.506656 -0.366643 0.133358
-0.506656 -0.366643 0.153358
-0.506656 -0.346643 -0.146642
-0.506656 -0.346643 -0.126642
-0.506656 -0.326643 -0.146642
-0.506656 -0.326643 -0.126642
-0.506656 -0.346643 -0.106642
-0.506656 -0.346643 -0.086642
-0.506656 -0.326643 -0.106642
-0.506656 -0.326643 -0.086642
-0.506656 -0.306643 -0.146642
-0.506656 -0.306643 -0.126642
-0.506656 -0.286643 -0.146642
-0.506656 -0.286643 -0.126642
-0.506656 -0.306643 -0.106642
-0.506656 -0.306643 -0.086642
-0.506656 -0.286643 -0.106642
-0.506656 -0.286643 -0.086642
-0.506656 -0.346643 -0.066642
-0.506656 -0.346643 -0.046642
-0.506656 -0.326643 -0.066642
-0.506656 -0.326643 -0.046642
-0.506656 -0.346643 -0.026642
-0.506656 -0.346643 -0.006642
-0.506656 -0.326643 -0.026642
-0.506656 -0.326643 -0.006642
-0.506656 -0.306643 -0.066642
-0.506656 -0.306643 -0.046642
-0.506656 -0.286643 -0.066642
-0.506656 -0.286643 -0.046642
-0.506656 -0.306643 -0.026642
-0.506656 -0.306643 -0.006642
-0.506656 -0.286643 -0.026642
-0.506656 -0.286643 -0.006642
-0.506656 -0.266643 -0.146642
-0.506656 -0.266643 -0.126642
-0.506656 -0.246643 -0.146642
-0.506656 -0.246643 -0.126642
-0.506656 -0.266643 -0.106642
-0.506656 -0.266643 -0.086642
-0.506656 -0.246643 -0.106642
-0.506656 -0.246643 -0.086642
-0.506656 -0.226643 -0.146642
-0.506656 -0.226643 -0.126642
-0.506656 -0.206643 -0.146642
-0.506656 -0.206643 -0.126642
-0.506656 -0.226643 -0.106642
-0.506656 -0.226643 -0.086642
-0.506656 -0.206643 -0.106642
-0.506656 -0.206643 -0.086642
-0.506656 -0.266643 -0.066642
-0.506656 -0.266643 -0.046642
-0.506656 -0.246643 -0.066642
-0.506656 -0.246643 -0.046642
-0.506656 -0.266643 -0.026642
-0.506656 -0.266643 -0.006642
-0.506656 -0.246643 -0.026642
-0.506656 -0.246643 -0.006642
-0.506656 -0.226643 -0.066642
-0.506656 -0.226643 -0.046642
-0.506656 -0.206643 -0.066642
-0.506656 -0.206643 -0.046642
-0.506656 -0.226643 -0.026642
-0.506656 -0.226643 -0.006642
-0.506656 -0.206643 -0.026642
-0.506656 -0.206643 -0.006642
-0.506656 -0.346643 0.013358
-0.506656 -0.346643 0.033358
-0.506656 -0.326643 0.013358
-0.506656 -0.326643 0.033358
-0.506656 -0.346643 0.053358
-0.506656 -0.346643 0.073358
-0.506656 -0.326643 0.053358
-0.506656 -0.326643 0.073358
-0.506656 -0.306643 0.013358
-0.506656 -0.306643 0.033358
-0.506656 -0.286643 0.013358
-0.506656 -0.286643 0.033358
-0.506656 -0.306643 0.053358
-0.506656 -0.306643 0.073358
-0.506656 -0.286643 0.053358
-0.506656 -0.286643 0.073358
-0.506656 -0.346643 0.093358
-0.506656 -0.346643 0.113358
-0.506656 -0.326643 0.093358
-0.506656 -0.326643 0.113358
-0.506656 -0.346643 0.133358
-0.506656 -0.346643 0.153358
-0.506656 -0.326643 0.133358
-0.506656 -0.326643 0.153358
-0.506656 -0.306643 0.093358
-0.506656 -0.306643 0.113358
-0.506656 -0.286643 0.093358
-0.506656 -0.286643 0.113358
-0.506656 -0.306643 0.133358
-0.506656 -0.306643 0.153358
-0.506656 -0.286643 0.133358
-0.506656 -0.286643 0.153358
-0.506656 -0.266643 0.013358
-0.506656 -0.266643 0.033358
-0.506656 -0.246643 0.013358
-0.506656 -0.246643 0.033358
-0.506656 -0.266643 0.053358
-0.506656 -0.266643 0.073358
-0.506656 -0.246643 0.053358
-0.506656 -0.246643 0.073358
-0.506656 -0.226643 0.013358
-0.506656 -0.226643 0.033358
-0.506656 -0.206643 0.013358
-0.506656 -0.206643 0.033358
-0.506656 -0.226643 0.053358
-0.506656 -0.226643 0.073358
-0.506656 -0.206643 0.053358
-0.506656 -0.206643 0.073358
-0.506656 -0.266643 0.093358
-0.506656 -0.266643 0.113358
-0.506656 -0.246643 0.093358
-0.506656 -0.246643 0.113358
-0.506656 -0.266643 0.133358
-0.506656 -0.266643 0.153358
-0.506656 -0.246643 0.133358
-0.506656 -0.246643 0.153358
-0.506656 -0.226643 0.093358
-0.506656 -0.226643 0.113358
-0.506656 -0.206643 0.093358
-0.506656 -0.206643 0.113358
-0.506656 -0.226643 0.133358
-0.506656 -0.226643 0.153358
-0.506656 -0.206643 0.133358
-0.506656 -0.206643 0.153358
-0.506656 -0.186643 -0.466642
-0.506656 -0.186643 -0.446642
-0.506656 -0.166643 -0.466642
-0.506656 -0.166643 -0.446642
-0.506656 -0.186643 -0.426642
-0.506656 -0.186643 -0.406642
-0.506656 -0.166643 -0.426642
-0.506656 -0.166643 -0.406642
-0.506656 -0.146643 -0.466642
-0.506656 -0.146643 -0.446642
-0.506656 -0.126643 -0.466642
-0.506656 -0.126643 -0.446642
-0.506656 -0.146643 -0.426642
-0.506656 -0.146643 -0.406642
-0.506656 -0.126643 -0.426642
-0.506656 -0.126643 -0.406642
-0.506656 -0.186643 -0.386642
-0.506656 -0.186643 -0.366642
-0.506656 -0.166643 -0.386642
-0.506656 -0.166643 -0.366642
-0.506656 -0.186643 -0.346642
-0.506656 -0.186643 -0.326642
-0.506656 -0.166643 -0.346642
-0.506656 -0.166643 -0.326642
-0.506656 -0.146643 -0.386642
-0.506656 -0.146643 -0.366642
-0.506656 -0.126643 -0.386642
-0.506656 -0.126643 -0.366642
-0.506656 -0.146643 -0.346642
-0.506656 -0.146643 -0.326642
-0.506656 -0.126643 -0.346642
-0.506656 -0.126643 -0.326642
-0.506656 -0.106643 -0.466642
-0.506656 -0.106643 -0.446642
-0.506656 -0.086643 -0.466642
-0.506656 -0.086643 -0.446642
-0.506656 -0.106643 -0.426642
-0.506656 -0.106643 -0.406642
-0.506656 -0.086643 -0.426642
-0.506656 -0.086643 -0.406642
-0.506656 -0.066643 -0.466642
-0.506656 -0.066643 -0.446642
-0.506656 -0.046643 -0.466642
-0.506656 -0.046643 -0.446642
-0.506656 -0.066643 -0.426642
-0.506656 -0.066643 -0.406642
-0.506656 -0.046643 -0.426642
-0.506656 -0.046643 -0.406642
-0.506656 -0.106643 -0.386642
-0.506656 -0.106643 -0.366642
-0.506656 -0.086643 -0.386642
-0.506656 -0.086643 -0.366642
-0.506656 -0.106643 -0.346642
-0.506656 -0.106643 -0.326642
-0.506656 -0.086643 -0.346642
-0.506656 -0.086643 -0.326642
-0.506656 -0.066643 -0.386642
-0.506656 -0.066643 -0.366642
-0.506656 -0.046643 -0.386642
-0.506656 -0.046643 -0.366642
-0.506656 -0.066643 -0.346642
-0.506656 -0.066643 -0.326642
-0.506656 -0.046643 -0.346642
-0.506656 -0.046643 -0.326642
-0.506656 -0.186643 -0.306642
-0.506656 -0.186643 -0.286642
-0.506656 -0.166643 -0.306642
-0.506656 -0.166643 -0.286642
-0.506656 -0.186643 -0.266642
-0.506656 -0.186643 -0.246642
-0.506656 -0.166643 -0.266642
-0.506656 -0.166643 -0.246642
-0.506656 -0.146643 -0.306642
-0.506656 -0.146643 -0.286642
-0.506656 -0.126643 -0.306642
-0.506656 -0.126643 -0.286642
-0.506656 -0.146643 -0.266642
-0.506656 -0.146643 -0.246642
-0.506656 -0.126643 -0.266642
-0.506656 -0.126643 -0.246642
-0.506656 -0.186643 -0.226642
-0.506656 -0.186643 -0.206642
-0.506656 -0.166643 -0.226642
-0.506656 -0.166643 -0.206642
-0.506656 -0.186643 -0.186642
-0.506656 -0.186643 -0.166642
-0.506656 -0.166643 -0.186642
-0.506656 -0.166643 -0.166642
-0.506656 -0.146643 -0.226642
-0.506656 -0.146643 -0.206642
-0.506656 -0.126643 -0.226642
-0.506656 -0.126643 -0.206642
-0.506656 -0.146643 -0.186642
-0.506656 -0.146643 -0.166642
-0.506656 -0.126643 -0.186642
-0.506656 -0.126643 -0.166642
-0.506656 -0.106643 -0.306642
-0.506656 -0.106643 -0.286642
-0.506656 -0.086643 -0.306642
-0.506656 -0.086643 -0.286642
-0.506656 -0.106643 -0.266642
-0.506656 -0.106643 -0.246642
-0.506656 -0.086643 -0.266642
-0.506656 -0.086643 -0.246642
-0.506656 -0.066643 -0.306642
-0.506656 -0.066643 -0.286642
-0.506656 -0.046643 -0.306642
-0.506656 -0.046643 -0.286642
-0.506656 -0.066643 -0.266642
-0.506656 -0.066643 -0.246642
-0.506656 -0.046643 -0.266642
-0.506656 -0.046643 -0.246642
-0.506656 -0.106643 -0.226642
-0.506656 -0.106643 -0.206642
-0.506656 -0.086643 -0.226642
-0.506656 -0.086643 -0.206642
-0.506656 -0.106643 -0.186642
-0.506656 -0.106643 -0.166642
-0.506656 -0.086643 -0.186642
-0.506656 -0.086643 -0.166642
-0.506656 -0.066643 -0.226642
-0.506656 -0.066643 -0.206642
-0.506656 -0.046643 -0.226642
-0.506656 -0.046643 -0.206642
-0.506656 -0.066643 -0.186642
-0.506656 -0.066643 -0.166642
-0.506656 -0.046643 -0.186642
-0.506656 -0.046643 -0.166642
-0.506656 -0.026643 -0.466642
-0.506656 -0.026643 -0.446642
-0.506656 -0.006643 -0.466642
-0.506656 -0.006643 -0.446642
-0.506656 -0.026643 -0.426642
-0.506656 -0.026643 -0.406642
-0.506656 -0.006643 -0.426642
-0.506656 -0.006643 -0.406642
-0.506656 0.013357 -0.466642
-0.506656 0.013357 -0.446642
-0.506656 0.033357 -0.466642
-0.506656 0.033357 -0.446642
-0.506656 0.013357 -0.426642
-0.506656 0.013357 -0.406642
-0.506656 0.033357 -0.426642
-0.506656 0.033357 -0.406642
-0.506656 -0.026643 -0.386642
-0.506656 -0.026643 -0.366642
-0.506656 -0.006643 -0.386642
-0.506656 -0.006643 -0.366642
-0.506656 -0.026643 -0.346642
-0.506656 -0.026643 -0.326642
-0.506656 -0.006643 -0.346642
-0.506656 -0.006643 -0.326642
-0.506656 0.013357 -0.386642
-0.506656 0.013357 -0.366642
-0.506656 0.033357 -0.386642
-0.506656 0.033357 -0.366642
-0.506656 0.013357 -0.346642
-0.506656 0.013357 -0.326642
-0.506656 0.033357 -0.346642
-0.506656 0.033357 -0.326642
-0.506656 0.053357 -0.466642
-0.506656 0.053357 -0.446642
-0.506656 0.073357 -0.466642
-0.506656 0.073357 -0.446642
-0.506656 0.053357 -0.426642
-0.506656 0.053357 -0.406642
-0.506656 0.073357 -0.426642
-0.506656 0.073357 -0.406642
-0.506656 0.093357 -0.466642
-0.506656 0.093357 -0.446642
-0.506656 0.113357 -0.466642
-0.506656 0.113357 -0.446642
-0.506656 0.093357 -0.426642
-0.506656 0.093357 -0.406642
-0.506656 0.113357 -0.426642
