ply
format ascii 1.0
element vertex 1692
property float x
property float y
property float z
end_header
-0.224090 0.013501 0.081139
-0.281907 0.014615 0.081273
-0.278467 0.020596 0.079534
-0.271485 0.020955 0.081274
-0.226371 0.020262 0.080500
-0.231476 0.022919 0.080760
-0.263109 0.022654 0.081729
-0.253517 0.023837 0.081574
0.223018 0.023763 0.085053
0.251172 0.033019 0.083678
0.225135 0.031929 0.085170
0.225863 0.041494 0.082720
0.232334 0.062800 0.081734
-0.340980 0.161393 0.083025
-0.371213 0.162699 0.084562
-0.319135 0.165120 0.084412
-0.311855 0.166902 0.084268
-0.234012 0.167069 0.085192
-0.223471 0.168464 0.085704
-0.245222 0.166828 0.082728
-0.205314 0.169436 0.081940
-0.398835 0.171105 0.084789
-0.254513 0.168247 0.084232
-0.406645 0.173698 0.083693
-0.280529 0.170968 0.084658
-0.271824 0.170045 0.085623
-0.263021 0.169996 0.084610
-0.427909 0.181962 0.084386
-0.448440 0.188409 0.084997
-0.216598 0.194832 0.080448
-0.328862 0.200778 0.083732
-0.321979 0.197817 0.085183
-0.311139 0.198151 0.085092
-0.300581 0.200282 0.084503
-0.350004 0.202015 0.085129
-0.233858 0.199226 0.082407
-0.339756 0.207402 0.084763
-0.361584 0.205786 0.083725
-0.253634 0.208924 0.081515
-0.255861 0.213078 0.080482
-0.419605 0.236038 0.084040
-0.282779 0.260138 0.084477
-0.223773 0.268304 0.080647
-0.312599 0.268584 0.084181
-0.341394 0.275006 0.082289
-0.344475 0.282838 0.080323
-0.223187 0.282578 0.081395
-0.351066 0.284512 0.083338
-0.360696 0.293425 0.082920
-0.378514 0.301531 0.082291
-0.372130 0.301659 0.080448
-0.302572 0.300962 0.082152
-0.393197 0.313232 0.085016
-0.329549 0.311200 0.085027
-0.395928 0.318649 0.081880
-0.339635 0.316945 0.084544
-0.345256 0.323367 0.080448
-0.353225 0.330119 0.079748
-0.370074 0.334067 0.083686
0.229849 -0.273514 0.085380
0.239376 -0.273476 0.084981
0.245359 -0.272013 0.082728
0.347457 -0.270502 0.083863
0.368656 -0.271216 0.084687
-0.185147 -0.266153 0.084793
-0.175847 -0.266971 0.083885
0.376560 -0.266608 0.086093
-0.213108 -0.264533 0.085251
-0.205534 -0.265960 0.084744
-0.195688 -0.265623 0.085183
-0.157515 -0.266062 0.084101
0.339194 -0.266577 0.085009
-0.233160 -0.264318 0.083286
-0.136375 -0.264061 0.084344
0.329438 -0.264283 0.084744
-0.253694 -0.259041 0.085033
-0.117474 -0.259791 0.085715
-0.107105 -0.259500 0.084829
-0.059857 -0.260668 0.081457
0.310723 -0.262848 0.085593
-0.264283 -0.258235 0.084729
-0.079064 -0.256256 0.085056
-0.030775 -0.257882 0.085121
-0.280946 -0.249938 0.086350
0.396801 -0.247100 0.084696
-0.290073 -0.247685 0.084909
0.145713 -0.242348 0.082183
0.130557 -0.242207 0.083025
0.407008 -0.235904 0.085603
0.409479 -0.232718 0.083025
-0.311878 -0.229970 0.086599
-0.003177 -0.227673 0.085540
0.417427 -0.221050 0.084416
-0.328445 -0.216457 0.083231
-0.330985 -0.208423 0.085023
0.104621 -0.214320 0.086073
0.001007 -0.209677 0.084775
0.136200 -0.212866 0.083835
0.425461 -0.208661 0.084108
0.432445 -0.197232 0.084961
-0.341992 -0.191235 0.085683
0.002402 -0.188067 0.082340
0.143349 -0.190083 0.085351
0.142077 -0.179786 0.085876
0.442406 -0.177554 0.085954
-0.349652 -0.170516 0.084788
0.142440 -0.168715 0.086376
0.142207 -0.160254 0.084349
0.448975 -0.161195 0.084605
-0.000338 -0.159385 0.086414
0.232618 -0.157930 0.085828
0.279482 -0.156419 0.084250
0.229068 -0.151549 0.085438
0.300770 -0.152429 0.084675
-0.352083 -0.150989 0.085842
0.310627 -0.149009 0.085469
0.231946 -0.140975 0.085497
0.316181 -0.146049 0.085242
-0.350961 -0.141569 0.085760
0.456231 -0.139973 0.085053
0.150807 -0.139860 0.085107
-0.352266 -0.132206 0.087065
0.327038 -0.138579 0.084539
0.232338 -0.130561 0.085052
0.458190 -0.133373 0.083885
0.332767 -0.134457 0.085682
0.337895 -0.130205 0.085326
0.162236 -0.120313 0.085751
0.229876 -0.120631 0.085358
-0.059018 -0.122727 0.083720
-0.049725 -0.122037 0.084863
0.352991 -0.113964 0.082913
-0.011646 -0.111285 0.084972
-0.352831 -0.110824 0.086560
0.215889 -0.108465 0.082353
-0.077915 -0.111847 0.084224
-0.067553 -0.111316 0.083404
0.179922 -0.107948 0.084375
-0.089941 -0.110442 0.085778
-0.066794 -0.105147 0.080951
-0.351076 -0.101809 0.085004
0.194423 -0.102988 0.086082
0.204063 -0.102211 0.084829
-0.099378 -0.103226 0.083547
-0.351051 -0.093289 0.085576
-0.107813 -0.101911 0.084974
-0.013650 -0.093946 0.081437
-0.028969 -0.093880 0.084796
-0.019317 -0.093547 0.084363
-0.145615 -0.091428 0.085657
-0.025336 -0.087111 0.082271
0.463919 -0.082913 0.086451
-0.164774 -0.081067 0.085509
-0.175992 -0.073243 0.085403
0.463370 -0.072920 0.084239
-0.343882 -0.072115 0.086817
-0.185225 -0.064514 0.085350
-0.341005 -0.062862 0.085135
0.461243 -0.063715 0.084509
-0.340292 -0.054081 0.084374
0.457366 -0.053471 0.085202
0.380867 -0.048147 0.082166
-0.338638 -0.045722 0.083383
-0.196194 -0.044314 0.082616
0.453300 -0.045357 0.085896
0.384792 -0.042945 0.085811
0.397551 -0.025806 0.084470
0.436487 -0.024480 0.085649
-0.206668 -0.014159 0.081605
-0.311103 -0.013363 0.084775
-0.213808 -0.005040 0.082367
-0.301280 -0.004981 0.084235
-0.235316 0.015440 0.082889
0.250766 0.021141 0.084403
0.251627 0.013334 0.085647
-0.272631 0.013319 0.083678
-0.243937 0.023041 0.081548
0.231387 0.052326 0.085035
0.251203 0.052940 0.085504
0.248533 0.059868 0.083846
0.241729 0.063065 0.085007
-0.361056 0.161884 0.084896
-0.375567 0.163126 0.081513
-0.330311 0.162414 0.084601
-0.323966 0.163283 0.084518
-0.379376 0.165856 0.085704
-0.214388 0.168287 0.085135
-0.387883 0.168680 0.084698
-0.303088 0.168729 0.084427
-0.292196 0.170487 0.084776
-0.205219 0.178593 0.082926
-0.418393 0.177081 0.085555
-0.438096 0.184962 0.085141
-0.223994 0.188409 0.084399
-0.448745 0.199025 0.084865
-0.243009 0.197714 0.086045
-0.292928 0.202889 0.085033
-0.444163 0.204961 0.084443
-0.332222 0.207279 0.086455
-0.287952 0.204303 0.085508
-0.438993 0.209032 0.085284
-0.281343 0.205835 0.085839
-0.271828 0.208075 0.084595
-0.263559 0.208610 0.083528
-0.372745 0.214399 0.081980
-0.379335 0.215769 0.085225
-0.388004 0.220370 0.085578
-0.396819 0.225413 0.086100
-0.447748 0.224892 0.086127
-0.406883 0.230293 0.084940
-0.412517 0.232979 0.084732
-0.465115 0.235832 0.085652
-0.466043 0.243973 0.085405
-0.438674 0.242878 0.085960
-0.456365 0.245005 0.083974
-0.447453 0.244671 0.085565
-0.263080 0.256131 0.084862
-0.234848 0.258449 0.082601
-0.272593 0.257629 0.084770
-0.287675 0.261346 0.084895
-0.293390 0.262760 0.085132
-0.303066 0.265873 0.084646
-0.233378 0.267130 0.084720
-0.338297 0.266276 0.085239
-0.223947 0.276951 0.084333
-0.349653 0.276631 0.086539
-0.234378 0.282588 0.084403
-0.252837 0.288288 0.084792
-0.257136 0.291122 0.084458
-0.272311 0.297549 0.084969
-0.369632 0.295477 0.085644
-0.280895 0.300721 0.082596
-0.292306 0.301900 0.082877
-0.321374 0.306697 0.086127
-0.396961 0.323956 0.084774
-0.361311 0.324281 0.085339
-0.360190 0.334322 0.081890
-0.405051 0.343828 0.084094
-0.375864 0.336905 0.085533
-0.387296 0.347634 0.086004
-0.396730 0.349883 0.084973
-0.390748 0.349180 0.083312
-0.165040 -0.264305 0.086759
-0.116919 -0.262971 0.082309
-0.067634 -0.264816 0.087198
-0.058569 -0.266594 0.085945
-0.050393 -0.266494 0.085424
-0.040519 -0.265868 0.085952
0.287270 -0.263379 0.086309
-0.243523 -0.260209 0.085611
-0.010123 -0.247538 0.086709
0.123763 -0.242048 0.085514
0.412458 -0.228599 0.085603
-0.323414 -0.220532 0.086204
0.255628 -0.217329 0.086879
0.259498 -0.212357 0.086942
0.004984 -0.189227 0.086621
-0.353346 -0.161574 0.084156
0.452605 -0.151566 0.086463
-0.007095 -0.129895 0.085776
-0.356078 -0.113454 0.083775
0.167846 -0.115172 0.083885
0.185524 -0.105655 0.085230
-0.116422 -0.101115 0.086083
0.371547 -0.076790 0.087322
-0.204720 -0.034119 0.085654
0.445884 -0.033711 0.086686
0.241843 -0.021873 0.086227
0.250900 -0.014586 0.085609
0.251587 -0.021396 0.088205
-0.214679 -0.014822 0.085119
0.223992 -0.012091 0.086858
-0.223606 -0.004230 0.084909
-0.234263 0.004348 0.084150
0.251915 0.005090 0.086618
-0.281474 0.005129 0.084937
-0.243838 0.014262 0.084482
-0.263435 0.014370 0.085112
0.229802 0.043812 0.086866
-0.410512 0.174813 0.085890
-0.213778 0.178667 0.085325
-0.232683 0.190000 0.086924
-0.358876 0.202320 0.086573
-0.254440 0.200061 0.086330
-0.401114 0.332363 0.085700
0.220868 -0.269331 0.087649
0.248169 -0.272997 0.087852
-0.031073 -0.266095 0.087419
-0.125009 -0.259451 0.087974
-0.018547 -0.256658 0.086926
-0.300256 -0.239213 0.086424
0.145595 -0.243936 0.088078
0.154280 -0.244117 0.087587
-0.004516 -0.237917 0.087566
0.255981 -0.224648 0.088194
0.090546 -0.217999 0.088420
0.125570 -0.215821 0.087284
0.115230 -0.215321 0.087536
0.136515 -0.214404 0.087304
0.154722 -0.209226 0.087391
-0.332731 -0.203122 0.087622
0.429499 -0.202689 0.087322
-0.343716 -0.180476 0.086359
0.439861 -0.183733 0.088014
0.292047 -0.154962 0.087432
-0.060189 -0.132084 0.086880
-0.052358 -0.129844 0.085776
-0.068722 -0.128535 0.087788
-0.067484 -0.120137 0.085028
-0.077552 -0.119649 0.087674
0.229763 -0.114345 0.087980
-0.097699 -0.110034 0.087134
-0.126961 -0.100959 0.087615
-0.032086 -0.099280 0.087330
0.373650 -0.070686 0.086033
-0.181292 -0.070664 0.087666
0.458286 -0.060178 0.087819
-0.332551 -0.043073 0.086806
-0.201433 -0.043679 0.086783
0.393267 -0.032248 0.086465
-0.322627 -0.031492 0.087397
-0.214007 -0.025148 0.086034
0.405494 -0.022982 0.086801
-0.313034 -0.021622 0.087668
0.417284 -0.020493 0.087489
0.426561 -0.021666 0.087928
-0.292218 -0.004427 0.086234
-0.232966 -0.004603 0.086321
-0.272774 0.004903 0.085947
-0.244090 0.004201 0.086726
-0.254533 0.014581 0.085487
0.228113 0.035332 0.088181
-0.243075 0.163760 0.087332
-0.221601 0.179487 0.087658
-0.345174 0.201863 0.087581
-0.262673 0.200400 0.086788
-0.376400 0.209882 0.088288
-0.232300 0.277044 0.087484
-0.359252 0.287670 0.086441
-0.378410 0.298467 0.087443
-0.302461 0.298374 0.087548
-0.293168 0.298870 0.087348
-0.281239 0.299268 0.086923
-0.369005 0.327620 0.088015
-0.403200 0.347801 0.087300
0.299183 -0.262978 0.087686
-0.232495 -0.261523 0.088151
-0.223363 -0.260582 0.088237
-0.134105 -0.260884 0.087979
0.210206 -0.261091 0.088611
-0.274313 -0.252566 0.087889
0.137432 -0.243976 0.088272
0.004003 -0.206473 0.089041
0.153369 -0.201933 0.088564
0.004809 -0.200476 0.088571
0.450546 -0.158137 0.088181
-0.354724 -0.122906 0.087951
0.463284 -0.111306 0.088611
-0.016963 -0.109639 0.088617
-0.020894 -0.102932 0.087824
0.218174 -0.105022 0.087089
-0.190819 -0.060178 0.086798
-0.211714 -0.034580 0.088462
-0.220073 -0.022432 0.087754
-0.222898 -0.013290 0.087136
-0.301564 -0.013142 0.088596
-0.231738 -0.010392 0.088519
-0.282100 -0.005315 0.088122
-0.240510 -0.003489 0.088203
-0.273311 -0.003278 0.087993
-0.262758 0.002934 0.087534
-0.254893 0.003813 0.088210
0.237080 0.054963 0.088128
-0.271481 0.200493 0.088415
-0.337057 0.261194 0.088495
-0.242817 0.266875 0.088374
-0.346433 0.267970 0.088280
-0.171216 -0.263008 0.089115
-0.020040 -0.267420 0.094099
-0.214449 -0.261372 0.088836
-0.145119 -0.261203 0.089040
-0.079587 -0.259356 0.090796
-0.013498 -0.255631 0.089065
0.203577 -0.251068 0.093973
0.093749 -0.227057 0.091208
0.258501 -0.223603 0.090407
0.161062 -0.211335 0.089031
0.164229 -0.207957 0.090899
0.260349 -0.208735 0.094013
0.008756 -0.189922 0.093685
0.006130 -0.180184 0.093442
-0.339217 -0.179725 0.092323
0.233613 -0.161403 0.093682
0.285646 -0.156348 0.089049
-0.058386 -0.140758 0.090123
-0.052472 -0.136655 0.088552
-0.070600 -0.132655 0.089825
0.235100 -0.128348 0.089189
-0.044250 -0.118610 0.089040
-0.088727 -0.120042 0.090365
-0.101216 -0.112594 0.089259
-0.104889 -0.108943 0.088708
0.354940 -0.111132 0.094087
-0.107540 -0.111729 0.090671
-0.136767 -0.100840 0.092671
0.211761 -0.098612 0.090105
0.213309 -0.095412 0.093993
-0.346411 -0.090829 0.090002
-0.153010 -0.089707 0.089040
-0.330474 -0.054272 0.090584
-0.333462 -0.049866 0.088118
-0.320498 -0.035877 0.090226
-0.215250 -0.035548 0.090511
0.253261 -0.025246 0.091556
0.223150 -0.014650 0.093747
0.227574 -0.018617 0.091582
-0.290806 -0.010338 0.089040
0.221688 -0.004613 0.093577
-0.264318 -0.003361 0.088646
-0.242939 -0.006042 0.089927
-0.351235 0.201912 0.093387
-0.321920 0.199182 0.093876
-0.311120 0.198490 0.093531
-0.277903 0.203076 0.089102
-0.369057 0.204780 0.094355
-0.340321 0.217075 0.094014
-0.474803 0.239417 0.093736
-0.255457 0.259122 0.089981
-0.341120 0.257570 0.093207
-0.333105 0.259637 0.094886
-0.321336 0.266516 0.094770
-0.236075 0.274294 0.089545
-0.365916 0.288696 0.089040
-0.265146 0.291544 0.089954
-0.292238 0.294367 0.093260
-0.280861 0.293940 0.092314
0.242260 -0.273158 0.093412
0.251852 -0.273318 0.094039
-0.059387 -0.271228 0.091164
-0.052759 -0.271999 0.091203
-0.049226 -0.272934 0.094003
-0.038214 -0.271720 0.090868
0.230476 -0.269005 0.094255
0.232527 -0.272234 0.091332
0.261016 -0.271349 0.090835
0.351682 -0.272032 0.091332
0.358098 -0.272484 0.093051
0.366795 -0.270898 0.094350
-0.068998 -0.270245 0.093558
-0.027855 -0.270909 0.092889
0.270174 -0.270491 0.094632
0.221940 -0.265128 0.092865
0.338731 -0.266949 0.094215
0.279329 -0.267482 0.093621
0.376011 -0.266141 0.093574
0.289467 -0.265749 0.094516
0.310732 -0.264094 0.094353
0.327517 -0.264539 0.093673
-0.195676 -0.258387 0.095126
-0.184862 -0.260064 0.093886
-0.174444 -0.257086 0.095537
-0.165882 -0.257174 0.093846
-0.156986 -0.257530 0.093355
-0.015887 -0.260900 0.090987
0.212921 -0.257747 0.093097
-0.232699 -0.256763 0.093085
-0.214571 -0.256970 0.093651
-0.206130 -0.258146 0.093600
-0.147477 -0.257828 0.092734
-0.137945 -0.256656 0.092150
-0.223877 -0.255315 0.094021
-0.125627 -0.254137 0.092086
-0.087869 -0.256663 0.094807
-0.010053 -0.256690 0.093953
0.206821 -0.254913 0.091007
-0.264059 -0.253880 0.091960
-0.254836 -0.254965 0.091735
-0.106782 -0.253918 0.091344
0.386652 -0.256543 0.093019
-0.098686 -0.251898 0.093663
0.182905 -0.254602 0.092913
0.192310 -0.254543 0.094530
0.197212 -0.252216 0.094209
-0.272568 -0.248252 0.094144
-0.007062 -0.250165 0.091525
0.171434 -0.250962 0.092756
-0.282784 -0.245302 0.091439
0.396561 -0.247093 0.094733
-0.004273 -0.248533 0.094982
0.164192 -0.248836 0.094245
-0.290879 -0.238962 0.093516
0.133780 -0.245300 0.096023
0.155128 -0.246074 0.094268
0.118527 -0.242348 0.089848
0.124850 -0.244224 0.093491
0.095556 -0.239236 0.092865
0.105447 -0.241957 0.091549
-0.298364 -0.234953 0.092184
0.407613 -0.235364 0.094024
-0.000649 -0.238486 0.094309
-0.301116 -0.229086 0.095356
-0.311677 -0.226213 0.091361
0.002278 -0.226282 0.093809
0.260285 -0.218571 0.092880
0.255012 -0.217734 0.093858
0.413884 -0.226780 0.093982
-0.319226 -0.217971 0.092369
0.003235 -0.219166 0.092826
0.088394 -0.217533 0.093654
0.093061 -0.219932 0.091796
0.418066 -0.220605 0.093982
0.114737 -0.216302 0.094303
0.123709 -0.218189 0.093448
0.134768 -0.217821 0.093332
0.108804 -0.214525 0.093276
0.144522 -0.217031 0.094946
0.421250 -0.215867 0.093051
0.003382 -0.212446 0.090444
0.006261 -0.208835 0.094414
0.096733 -0.212370 0.094374
0.103596 -0.213093 0.094130
0.154474 -0.215642 0.093637
0.163926 -0.215734 0.093968
0.172488 -0.208888 0.092472
0.254429 -0.209145 0.093778
0.426325 -0.208244 0.093509
-0.326863 -0.206258 0.091046
-0.330507 -0.199370 0.092684
0.163414 -0.200613 0.094323
0.155736 -0.199251 0.091530
0.008062 -0.199465 0.093140
0.432302 -0.198798 0.094871
-0.337082 -0.189299 0.092736
0.152646 -0.190610 0.093859
0.436258 -0.191671 0.093547
0.148825 -0.189057 0.091842
0.147854 -0.179488 0.093085
0.440022 -0.184396 0.093767
0.442748 -0.178187 0.091905
-0.340796 -0.169482 0.094291
0.003960 -0.173604 0.090759
0.147024 -0.169874 0.092975
-0.059444 -0.170784 0.091949
-0.049404 -0.169635 0.093556
-0.066854 -0.168396 0.093999
0.001898 -0.169749 0.094306
-0.347890 -0.161278 0.091636
-0.069760 -0.161387 0.093110
-0.059347 -0.160323 0.090037
-0.049109 -0.160667 0.092876
-0.001590 -0.159841 0.094090
0.146757 -0.161108 0.091519
0.242663 -0.163351 0.092563
0.250755 -0.162018 0.093932
0.262029 -0.161103 0.093558
0.269771 -0.160149 0.093704
0.450613 -0.158996 0.094196
0.287669 -0.157213 0.094272
-0.347650 -0.150923 0.091917
-0.059470 -0.151148 0.091082
0.232658 -0.152151 0.093651
0.299591 -0.154107 0.094568
0.452939 -0.151902 0.093623
-0.049951 -0.151351 0.092808
0.151951 -0.151091 0.094046
0.308912 -0.150741 0.093522
0.316493 -0.146107 0.091618
-0.048999 -0.140932 0.093442
0.154687 -0.142956 0.094198
0.234944 -0.143443 0.091794
0.320147 -0.143903 0.093918
0.456911 -0.140738 0.093958
-0.007367 -0.139610 0.094071
0.326141 -0.139456 0.093848
-0.347543 -0.130555 0.091970
-0.066786 -0.140709 0.091389
-0.047275 -0.132872 0.092406
0.157719 -0.132769 0.092161
0.238556 -0.130934 0.094470
0.331618 -0.135708 0.093845
-0.078264 -0.131263 0.091406
-0.010514 -0.130720 0.094186
0.337818 -0.130662 0.094196
-0.012382 -0.122892 0.092155
0.161012 -0.128512 0.094262
-0.348773 -0.121436 0.092987
-0.078681 -0.123336 0.089586
0.234670 -0.120991 0.091077
-0.042020 -0.121272 0.094079
0.164663 -0.122324 0.094607
0.347871 -0.120437 0.092764
-0.098227 -0.121839 0.092599
-0.348306 -0.110989 0.091987
-0.038201 -0.112058 0.092328
-0.020123 -0.112901 0.092022
-0.013804 -0.115172 0.089725
0.168366 -0.116418 0.091618
0.352838 -0.114323 0.091276
0.174179 -0.112621 0.094176
0.232388 -0.110889 0.092913
0.462667 -0.111484 0.094196
-0.117145 -0.111704 0.093832
0.178821 -0.108533 0.090759
-0.116919 -0.106579 0.090272
-0.029394 -0.103750 0.090714
-0.022397 -0.105720 0.089921
0.185513 -0.104160 0.093812
0.462806 -0.101962 0.094075
-0.346969 -0.104886 0.090963
-0.128551 -0.104866 0.092467
0.360191 -0.102918 0.094020
0.221906 -0.101381 0.092287
-0.341433 -0.102394 0.095677
0.192996 -0.101151 0.093799
0.201410 -0.098553 0.093451
-0.340438 -0.093963 0.093982
0.462890 -0.091182 0.092764
0.221209 -0.093559 0.096355
-0.148400 -0.094230 0.094060
0.365910 -0.092409 0.092936
-0.156622 -0.089174 0.094215
-0.340582 -0.083919 0.093306
-0.158818 -0.087007 0.090759
-0.347210 -0.085956 0.089270
-0.165867 -0.083138 0.093597
0.370271 -0.082373 0.094626
0.461534 -0.083391 0.093518
-0.172774 -0.078797 0.094196
-0.339010 -0.073864 0.092358
-0.175882 -0.076618 0.093260
-0.183219 -0.071139 0.092912
0.374282 -0.073120 0.094750
0.456642 -0.065164 0.094568
0.377934 -0.064186 0.094482
-0.194596 -0.063258 0.094237
-0.331336 -0.063489 0.093516
-0.197675 -0.057364 0.089989
0.453199 -0.055425 0.093156
0.381083 -0.056705 0.093747
-0.204444 -0.054827 0.094130
0.384202 -0.052627 0.094791
-0.206871 -0.045677 0.091209
-0.328736 -0.044710 0.089399
0.387966 -0.045747 0.094352
-0.213283 -0.044260 0.094381
0.442433 -0.036265 0.091817
0.390923 -0.037522 0.090119
0.397539 -0.034605 0.093125
-0.311845 -0.035199 0.093591
-0.311212 -0.027411 0.091275
-0.222955 -0.035091 0.093841
0.436145 -0.033922 0.093795
-0.225557 -0.026955 0.091331
0.241205 -0.026955 0.092339
0.408032 -0.026753 0.091581
0.431310 -0.026380 0.090307
0.416129 -0.027058 0.092423
0.424727 -0.026390 0.091792
0.259724 -0.023984 0.095212
-0.307683 -0.018931 0.089389
-0.302395 -0.024092 0.093190
-0.225191 -0.018931 0.089256
0.233057 -0.024701 0.095734
-0.300832 -0.016353 0.090460
-0.233989 -0.015877 0.091179
-0.289967 -0.016064 0.091515
-0.281991 -0.014178 0.091890
0.255802 -0.011625 0.090242
-0.272670 -0.014704 0.092622
-0.263302 -0.013574 0.092398
-0.243611 -0.015406 0.093219
-0.263070 -0.007328 0.090036
-0.269015 -0.006901 0.089236
-0.254602 -0.004417 0.090483
0.255568 -0.002050 0.090680
0.223442 0.004392 0.093804
0.255951 0.002222 0.090876
0.258365 0.004736 0.093522
0.257774 0.014267 0.093243
0.224290 0.013849 0.091874
0.256014 0.020321 0.090586
0.226777 0.022202 0.092380
0.229293 0.024593 0.095489
0.257120 0.024937 0.093976
0.256227 0.030751 0.094088
0.231585 0.034463 0.093524
0.254329 0.035867 0.095347
0.234381 0.041818 0.092836
0.251156 0.043881 0.094606
0.242193 0.052513 0.092434
0.249578 0.051874 0.090879
-0.366785 0.163760 0.092726
-0.359241 0.163455 0.092541
-0.349348 0.162650 0.094207
-0.339090 0.163833 0.094247
-0.330597 0.163617 0.090582
-0.379482 0.168007 0.093458
-0.371309 0.165002 0.094461
-0.321142 0.166269 0.093819
-0.262510 0.167491 0.095435
-0.263413 0.163156 0.093873
-0.257844 0.164015 0.091618
-0.254888 0.167275 0.094326
-0.243757 0.168532 0.092714
-0.272659 0.165346 0.092521
-0.312481 0.167472 0.093965
-0.302405 0.167501 0.094107
-0.290284 0.167491 0.093056
-0.281359 0.166416 0.093963
-0.235798 0.169470 0.090133
-0.389519 0.169927 0.092140
-0.397622 0.172794 0.095661
-0.232045 0.178392 0.090998
-0.224428 0.176448 0.089998
-0.407304 0.175225 0.093365
-0.418209 0.179413 0.093824
-0.429130 0.184618 0.094155
-0.425783 0.183474 0.093184
-0.235968 0.185149 0.090863
-0.437986 0.186101 0.094082
-0.446280 0.190172 0.094289
-0.244699 0.189661 0.090979
-0.262572 0.189479 0.093824
-0.254816 0.188635 0.092793
-0.446152 0.200051 0.093878
-0.271807 0.195465 0.090887
-0.281228 0.198441 0.091528
-0.361374 0.202393 0.094327
-0.326682 0.202747 0.092003
-0.301269 0.198627 0.094036
-0.291319 0.199501 0.093438
-0.442617 0.205286 0.091558
-0.347145 0.206022 0.095009
-0.379382 0.207878 0.093794
-0.329874 0.207908 0.094532
-0.437938 0.208841 0.094315
-0.341827 0.211590 0.092513
-0.386031 0.211477 0.094954
-0.437470 0.218524 0.093158
-0.389686 0.216658 0.093659
-0.333945 0.215622 0.095025
-0.395632 0.220812 0.095088
-0.445798 0.225732 0.094553
-0.399795 0.225192 0.093050
-0.408220 0.229640 0.094375
-0.454116 0.230284 0.093632
-0.466490 0.235650 0.093728
-0.418285 0.235287 0.094722
-0.475559 0.244553 0.094460
-0.428573 0.239505 0.094633
-0.440014 0.243507 0.093191
-0.468282 0.247582 0.093640
-0.447532 0.245486 0.094177
-0.458059 0.247273 0.093690
-0.264359 0.260015 0.092585
-0.271991 0.260089 0.093475
-0.348632 0.266320 0.093103
-0.328850 0.262392 0.094006
-0.254611 0.267317 0.093388
-0.300374 0.264857 0.094480
-0.310443 0.266845 0.093857
-0.246396 0.268004 0.090520
-0.352579 0.272988 0.093750
-0.360193 0.276484 0.093367
-0.243772 0.276121 0.093186
-0.362116 0.281807 0.090691
-0.245583 0.281296 0.091766
-0.369390 0.286378 0.092856
-0.255038 0.283771 0.093518
-0.262770 0.286845 0.093941
-0.379577 0.295654 0.093577
-0.272638 0.292605 0.091592
-0.303442 0.296876 0.093423
-0.388063 0.305028 0.093230
-0.319201 0.304188 0.093658
-0.329891 0.309015 0.093961
-0.333688 0.311106 0.094196
-0.391962 0.315074 0.093488
-0.340008 0.316036 0.094109
-0.395867 0.324673 0.093842
-0.359905 0.320632 0.095368
-0.350059 0.320843 0.093862
-0.368034 0.325827 0.093194
-0.400396 0.333831 0.093860
-0.372759 0.330919 0.091189
-0.376637 0.335982 0.094314
-0.400544 0.345144 0.094069
-0.381370 0.342512 0.094199
-0.394472 0.348856 0.091618
0.347715 -0.270680 0.095034
-0.077544 -0.265701 0.095328
0.075601 -0.258427 0.093620
0.083778 -0.256766 0.094443
-0.242359 -0.255168 0.093158
-0.120357 -0.254378 0.090821
-0.106445 -0.249873 0.095723
-0.312093 -0.220582 0.095916
0.180874 -0.214581 0.094703
0.172559 -0.215451 0.094422
0.183802 -0.209809 0.095171
-0.320845 -0.208008 0.095852
0.258249 -0.203332 0.096279
0.446180 -0.170740 0.095055
-0.346179 -0.166386 0.092061
0.448507 -0.164806 0.094196
0.279043 -0.158482 0.094424
-0.069442 -0.149381 0.092472
-0.079323 -0.141094 0.092705
0.458973 -0.133791 0.094482
-0.088188 -0.130839 0.093608
0.459987 -0.128921 0.092478
-0.044846 -0.126196 0.092646
0.461359 -0.121041 0.095198
-0.018271 -0.120798 0.095098
-0.107370 -0.120695 0.095009
-0.124941 -0.108488 0.094944
-0.142237 -0.097701 0.092478
0.460672 -0.076308 0.092388
-0.336253 -0.068341 0.092564
-0.188618 -0.067052 0.092478
-0.320996 -0.054138 0.096026
-0.319807 -0.044878 0.093109
0.446679 -0.045513 0.094923
-0.233659 -0.025231 0.093460
-0.294415 -0.024652 0.094422
0.259857 -0.012941 0.095275
-0.253850 -0.012907 0.093211
0.259707 -0.004633 0.095230
-0.243871 0.178407 0.093148
-0.280497 0.189735 0.095722
-0.412502 0.232798 0.093747
-0.280042 0.260698 0.093381
-0.291055 0.263074 0.095313
-0.312907 0.301080 0.094198
-0.388621 0.346828 0.094394
-0.065853 -0.272565 0.095915
-0.059647 -0.273128 0.096847
-0.040872 -0.273365 0.095629
-0.031907 -0.273041 0.096005
0.236800 -0.271695 0.094692
0.261881 -0.272634 0.095715
0.067575 -0.256525 0.097388
0.074918 -0.262807 0.096344
0.220205 -0.259823 0.096639
-0.263693 -0.250252 0.096468
-0.254298 -0.250767 0.096686
-0.245411 -0.251704 0.096332
-0.137557 -0.249880 0.096857
-0.128091 -0.250633 0.095913
-0.093292 -0.253191 0.094769
0.076097 -0.248545 0.096389
0.086672 -0.249200 0.095620
0.174569 -0.253835 0.096101
0.209773 -0.250493 0.096509
-0.117206 -0.249982 0.095571
-0.281732 -0.240872 0.096585
0.096431 -0.247064 0.096357
0.105097 -0.244676 0.096431
0.114231 -0.243424 0.094626
0.087198 -0.238682 0.096341
0.089603 -0.228302 0.096018
0.004860 -0.217583 0.096079
0.089056 -0.212853 0.096888
-0.323268 -0.200589 0.097034
0.172640 -0.201723 0.097063
0.255405 -0.203298 0.096579
0.429924 -0.202820 0.094196
-0.330702 -0.189928 0.097409
0.150728 -0.180525 0.095538
-0.056578 -0.175246 0.095677
-0.052821 -0.175277 0.096150
0.239190 -0.165865 0.096271
-0.341848 -0.160325 0.096777
-0.075869 -0.159684 0.095771
0.150690 -0.160319 0.096012
-0.343613 -0.151929 0.096788
-0.077733 -0.152413 0.094187
-0.004066 -0.152981 0.095913
0.252190 -0.147542 0.097164
-0.084905 -0.149126 0.096596
-0.343028 -0.141977 0.096658
0.253427 -0.145275 0.097024
-0.088477 -0.141466 0.095854
-0.342948 -0.131417 0.095578
-0.043799 -0.129924 0.096001
-0.098064 -0.130373 0.096302
0.238800 -0.121136 0.096427
0.168881 -0.117620 0.096509
-0.342155 -0.111122 0.097293
-0.030095 -0.110940 0.094569
0.203521 -0.096521 0.096132
0.458033 -0.073139 0.095863
-0.332598 -0.074221 0.096082
0.393574 -0.041234 0.096342
-0.233182 -0.033971 0.096456
0.243901 -0.032970 0.096346
0.406535 -0.032493 0.095921
0.427705 -0.033927 0.096730
0.253073 -0.033235 0.096263
0.416725 -0.032091 0.096473
-0.282274 -0.024819 0.095135
0.225745 -0.020714 0.096250
0.238823 0.044465 0.096097
-0.270857 0.163489 0.095311
-0.254207 0.178785 0.096316
-0.458894 0.233186 0.096483
-0.434858 0.241788 0.094687
-0.347288 0.259873 0.096240
-0.283007 0.262318 0.096237
-0.263470 0.266673 0.095611
-0.366772 0.277820 0.096783
-0.376331 0.289172 0.094682
-0.271991 0.288588 0.095591
-0.278467 0.290297 0.095516
-0.310261 0.299651 0.095055
0.301125 -0.264860 0.096257
-0.013757 -0.263893 0.096711
0.319608 -0.264534 0.096837
0.069363 -0.252168 0.096845
-0.238510 -0.252571 0.097015
0.145197 -0.245585 0.096677
0.078562 -0.238979 0.097726
-0.044576 -0.166300 0.096949
0.238736 -0.141238 0.096906
-0.113336 -0.118323 0.096564
-0.202563 -0.059824 0.097041
0.449465 -0.051576 0.095783
-0.310991 -0.045283 0.096258
-0.302409 -0.033996 0.095765
-0.222509 -0.042609 0.097687
0.260481 -0.033372 0.097740
-0.244412 -0.033333 0.097312
-0.241950 -0.025806 0.095198
-0.272670 -0.024426 0.096047
-0.263242 -0.024451 0.096487
-0.254550 -0.024662 0.096452
-0.362248 0.164663 0.095915
-0.330311 0.164977 0.096767
-0.271780 0.186960 0.096718
-0.291380 0.191414 0.096876
-0.437860 0.223056 0.097414
-0.271044 0.265343 0.097014
-0.254075 0.274171 0.097385
-0.383258 0.302489 0.096477
-0.392438 0.319631 0.095915
0.069492 -0.258104 0.101892
-0.162892 -0.251554 0.097810
-0.147476 -0.251169 0.097546
0.202050 -0.249601 0.102572
0.069454 -0.248181 0.101604
0.186162 -0.209817 0.102444
0.010269 -0.199093 0.102338
0.251407 -0.199276 0.103676
0.258361 -0.199608 0.103569
0.160633 -0.192978 0.097385
-0.333759 -0.181338 0.097991
0.151184 -0.169423 0.097588
0.233043 -0.170191 0.104961
0.233947 -0.165503 0.097688
-0.044567 -0.162147 0.097206
0.250970 -0.150831 0.102677
0.250732 -0.140977 0.105740
0.243128 -0.131947 0.103163
-0.339788 -0.122476 0.097954
-0.029655 -0.117051 0.097978
0.237044 -0.112981 0.096476
0.230759 -0.102404 0.097580
0.224818 -0.091684 0.098974
-0.332343 -0.082304 0.097354
0.222223 -0.084314 0.103235
-0.324084 -0.062326 0.097760
-0.312702 -0.051339 0.097741
-0.302957 -0.042132 0.097566
0.241061 -0.037762 0.100076
0.438185 -0.040959 0.097857
-0.291582 -0.036314 0.097445
-0.281311 -0.035111 0.097732
-0.252698 -0.031968 0.097803
0.262559 -0.036785 0.099488
0.264209 -0.029223 0.099067
0.225182 -0.022408 0.103325
0.227999 0.013722 0.097633
-0.263633 0.179669 0.098073
-0.362383 0.204510 0.098220
-0.350862 0.205344 0.102416
-0.361006 0.208536 0.102054
-0.369798 0.208266 0.103084
-0.430912 0.216083 0.097645
-0.361910 0.276288 0.103536
-0.259562 0.271112 0.097633
-0.057914 -0.273362 0.104814
-0.052990 -0.273445 0.104508
-0.029953 -0.273547 0.100312
0.252235 -0.272793 0.101152
0.261535 -0.273090 0.103326
-0.075634 -0.272477 0.103861
-0.067937 -0.273242 0.104067
-0.018182 -0.270711 0.102806
0.241527 -0.268117 0.102422
0.270551 -0.272785 0.103004
0.352828 -0.272032 0.101071
0.356838 -0.272108 0.101071
0.360404 -0.271395 0.103829
-0.079177 -0.270319 0.101844
0.279419 -0.271348 0.101781
0.347478 -0.271307 0.103306
0.368771 -0.268567 0.103974
0.289917 -0.270028 0.103992
-0.085262 -0.267001 0.104496
0.231658 -0.263801 0.101357
0.337602 -0.268586 0.102870
0.375030 -0.265213 0.101563
-0.013029 -0.266439 0.103707
0.299795 -0.267544 0.102578
0.329103 -0.266979 0.103246
-0.090861 -0.259029 0.102325
-0.008628 -0.259938 0.101728
0.074703 -0.262665 0.099352
0.075731 -0.257952 0.104987
0.224128 -0.256064 0.102200
0.380242 -0.260455 0.103153
0.085700 -0.256128 0.104279
-0.185598 -0.254852 0.099331
0.173736 -0.255391 0.103461
0.185380 -0.258030 0.103534
0.193279 -0.256971 0.103183
-0.196779 -0.254388 0.099436
-0.178789 -0.254378 0.098896
-0.004863 -0.255289 0.104073
-0.223097 -0.250743 0.103860
-0.213237 -0.250045 0.104199
-0.201130 -0.253974 0.099352
-0.174771 -0.248245 0.101675
-0.099780 -0.250308 0.101998
-0.096250 -0.254185 0.103551
0.097687 -0.251102 0.101283
0.220685 -0.248218 0.105120
0.390403 -0.251661 0.103514
-0.234991 -0.250172 0.101637
-0.165784 -0.246876 0.101945
-0.158166 -0.250941 0.098014
-0.001371 -0.248075 0.102197
0.212978 -0.246530 0.102869
0.396369 -0.246606 0.103208
-0.253381 -0.245751 0.103425
-0.243929 -0.248328 0.102547
-0.157051 -0.247853 0.099682
-0.148198 -0.247498 0.099597
-0.262926 -0.244371 0.101813
-0.136924 -0.245079 0.100088
-0.127174 -0.245387 0.100825
-0.107497 -0.245863 0.103315
0.105283 -0.248825 0.103470
0.163125 -0.251014 0.103256
-0.268817 -0.245588 0.099185
-0.115738 -0.244768 0.100886
0.144592 -0.246843 0.105054
0.155720 -0.248752 0.104654
0.074524 -0.237817 0.103094
0.113961 -0.246271 0.103136
0.124256 -0.245969 0.103075
-0.272537 -0.238334 0.102721
0.002653 -0.238465 0.103924
0.406545 -0.236525 0.103521
-0.280944 -0.236105 0.100821
-0.287348 -0.233325 0.100617
0.083085 -0.233478 0.099713
-0.292142 -0.227824 0.101920
0.084062 -0.228124 0.101304
0.413564 -0.227438 0.104336
-0.302540 -0.218982 0.101607
0.006901 -0.218320 0.102770
0.083263 -0.218389 0.102952
0.418390 -0.220755 0.103214
0.123458 -0.217127 0.103587
0.134689 -0.218431 0.103992
0.145934 -0.219538 0.102918
0.154955 -0.219936 0.103260
0.164278 -0.219218 0.103657
0.114620 -0.215066 0.103544
0.172200 -0.217324 0.103722
0.254346 -0.214554 0.099669
-0.310854 -0.215423 0.099671
0.179982 -0.214821 0.101586
0.258160 -0.214257 0.098963
-0.312336 -0.208499 0.101219
0.008726 -0.210109 0.102439
0.088176 -0.211813 0.103105
0.106023 -0.212244 0.102789
0.252873 -0.209326 0.103742
0.258846 -0.209069 0.102262
0.096336 -0.210132 0.103341
-0.317273 -0.206258 0.099352
0.427324 -0.207475 0.103004
0.183962 -0.199653 0.102317
0.178834 -0.202704 0.098149
-0.319979 -0.198931 0.099802
0.174221 -0.198763 0.099964
0.432893 -0.198524 0.103219
-0.319590 -0.189777 0.102431
0.164126 -0.190260 0.100727
-0.328796 -0.187040 0.099511
0.437973 -0.189415 0.102102
0.007665 -0.188206 0.103555
0.158055 -0.184866 0.099352
-0.330354 -0.178143 0.100667
0.155547 -0.177212 0.099541
0.443511 -0.178264 0.103305
0.005009 -0.181367 0.103132
-0.058893 -0.175921 0.103402
-0.050373 -0.176013 0.103313
0.002806 -0.176873 0.104288
-0.068876 -0.169024 0.101347
-0.045596 -0.173664 0.103097
0.155744 -0.170096 0.101094
-0.329975 -0.170048 0.101789
-0.040641 -0.168893 0.104003
0.447764 -0.168451 0.104322
-0.000410 -0.169040 0.103536
0.241963 -0.167734 0.104260
-0.335180 -0.165011 0.098715
0.252074 -0.167268 0.104470
-0.330582 -0.160091 0.101976
-0.077422 -0.160427 0.103163
-0.038579 -0.160987 0.103728
0.234178 -0.160510 0.103791
0.252034 -0.162641 0.101594
0.262084 -0.164264 0.100999
-0.003457 -0.161501 0.103838
0.270713 -0.163360 0.103874
-0.335678 -0.159856 0.099515
0.278844 -0.160834 0.102704
0.451139 -0.158958 0.103107
0.289359 -0.159030 0.103176
-0.338832 -0.151907 0.099618
-0.082740 -0.154112 0.103362
-0.039961 -0.150876 0.103931
0.235169 -0.153441 0.100688
0.300752 -0.154832 0.103429
0.309068 -0.151204 0.102792
0.453916 -0.150700 0.102789
-0.086951 -0.148974 0.102778
-0.005482 -0.153346 0.102133
0.157699 -0.153070 0.100809
-0.339161 -0.141245 0.099661
-0.090552 -0.144445 0.102469
-0.039873 -0.141326 0.103556
-0.011709 -0.141736 0.103451
0.317189 -0.146779 0.104514
0.456641 -0.141094 0.103861
0.158055 -0.143754 0.098982
0.258215 -0.140567 0.103522
0.322140 -0.143210 0.102521
-0.095257 -0.139586 0.103997
0.243201 -0.142631 0.104698
0.327984 -0.138884 0.103495
0.163013 -0.140234 0.104029
-0.100088 -0.133775 0.101988
-0.039131 -0.132578 0.102475
0.458672 -0.130994 0.104115
-0.336991 -0.131554 0.099882
-0.014245 -0.132358 0.099352
0.165501 -0.131319 0.102484
-0.019031 -0.130786 0.102278
0.338321 -0.130394 0.102274
-0.105309 -0.128910 0.103272
0.459878 -0.127202 0.100498
0.342665 -0.126100 0.103362
-0.336505 -0.121044 0.099442
-0.110121 -0.124528 0.103247
-0.037127 -0.122852 0.100800
-0.023468 -0.123311 0.100332
0.166809 -0.123303 0.099376
0.243697 -0.120296 0.103790
0.460593 -0.120868 0.099921
-0.115448 -0.119706 0.102828
-0.029175 -0.121409 0.100342
0.348099 -0.120567 0.103595
0.171279 -0.120559 0.104563
-0.337906 -0.111973 0.099525
-0.119497 -0.115484 0.100758
0.175814 -0.114014 0.103472
0.352489 -0.114847 0.099719
0.461065 -0.110948 0.100784
-0.126714 -0.110724 0.103999
0.241628 -0.110979 0.102689
0.355427 -0.110590 0.103362
0.180498 -0.109684 0.105288
-0.336673 -0.105205 0.099738
-0.137355 -0.103214 0.103352
0.241417 -0.102556 0.104696
0.460875 -0.103548 0.100283
0.185389 -0.104166 0.103183
0.360818 -0.102362 0.102617
0.232745 -0.100733 0.099241
0.193507 -0.099692 0.104177
-0.335180 -0.097986 0.098778
0.458023 -0.094828 0.104011
-0.144699 -0.098710 0.105985
0.203913 -0.094065 0.102458
0.230278 -0.093434 0.100354
0.366901 -0.092540 0.103595
-0.149836 -0.094788 0.101951
0.240864 -0.092745 0.103798
0.211829 -0.089892 0.102757
0.459815 -0.091112 0.100128
-0.333462 -0.091112 0.098068
-0.329799 -0.093874 0.101668
-0.157649 -0.089725 0.103218
0.231047 -0.083838 0.102790
0.240185 -0.082455 0.104349
0.370557 -0.084142 0.102708
-0.328084 -0.082663 0.099915
-0.166529 -0.083402 0.103601
0.456112 -0.083823 0.104143
-0.173347 -0.079105 0.102983
0.453552 -0.071901 0.102020
-0.326126 -0.073067 0.098968
-0.185152 -0.071792 0.104052
-0.177929 -0.076180 0.103219
0.375619 -0.074537 0.104364
-0.195248 -0.065804 0.102975
-0.320480 -0.064584 0.100597
0.380519 -0.064200 0.102062
0.451793 -0.063016 0.100871
-0.203792 -0.061448 0.102442
-0.311986 -0.055417 0.099757
-0.215320 -0.056456 0.102357
0.388295 -0.054649 0.103318
-0.212301 -0.052444 0.097901
-0.302430 -0.054695 0.101620
0.443676 -0.054629 0.103601
0.262327 -0.045052 0.101531
0.396215 -0.045268 0.101269
-0.299132 -0.044917 0.099402
-0.225737 -0.045999 0.100083
0.440780 -0.045824 0.100094
-0.293438 -0.046507 0.100833
0.435233 -0.045588 0.102537
-0.282574 -0.043636 0.100335
-0.234087 -0.044633 0.101129
-0.285341 -0.039554 0.098521
-0.278467 -0.038980 0.099085
-0.234838 -0.039127 0.099133
-0.230346 -0.039554 0.098580
0.432349 -0.039206 0.099437
-0.253007 -0.036711 0.099631
0.251961 -0.043609 0.100327
0.408652 -0.038651 0.100791
0.268519 -0.035646 0.103335
0.425298 -0.037207 0.099942
-0.271840 -0.036201 0.099795
0.415337 -0.036652 0.100460
0.231912 -0.034315 0.103659
-0.273311 -0.030961 0.097804
-0.266437 -0.030961 0.098477
0.229840 -0.027357 0.101569
0.224821 -0.013658 0.103887
0.264405 -0.014993 0.101067
0.224449 -0.004785 0.099925
0.264394 -0.003906 0.102111
0.225351 -0.000027 0.098917
0.262775 0.005080 0.102488
0.230311 0.004289 0.105026
0.260342 0.013432 0.103488
0.231161 0.013579 0.103115
0.257073 0.021986 0.101978
0.233260 0.022983 0.102620
0.252410 0.026488 0.105282
0.235654 0.030785 0.101659
0.251018 0.033495 0.101840
0.241798 0.033584 0.105341
0.242394 0.042285 0.100095
-0.350648 0.163887 0.099782
-0.339956 0.164840 0.104562
-0.290581 0.166229 0.104074
-0.282496 0.168793 0.103352
-0.273287 0.169573 0.101622
-0.265402 0.168316 0.099683
-0.370340 0.166887 0.103119
-0.361174 0.166342 0.103106
-0.330512 0.164987 0.102932
-0.320176 0.165434 0.101596
-0.303272 0.164918 0.102642
-0.388509 0.170983 0.102895
-0.378489 0.169112 0.102431
-0.400544 0.174930 0.102503
-0.265509 0.175269 0.099140
-0.409089 0.177027 0.104301
-0.418627 0.181058 0.102191
-0.272535 0.178328 0.100660
-0.271592 0.182144 0.098768
-0.424547 0.183729 0.100211
-0.281868 0.179610 0.103136
-0.283806 0.183862 0.101123
-0.437060 0.187825 0.103541
-0.292717 0.185659 0.101036
-0.444163 0.191885 0.101505
-0.302178 0.188743 0.101810
-0.306269 0.195941 0.099328
-0.444114 0.196339 0.102374
-0.321613 0.195548 0.102491
-0.312266 0.195033 0.100936
-0.440476 0.200223 0.105018
-0.330749 0.199310 0.103678
-0.332424 0.207579 0.100676
-0.436370 0.206351 0.101558
-0.376672 0.210014 0.103882
-0.385221 0.211404 0.099527
-0.429039 0.210564 0.104758
-0.340361 0.209553 0.103644
-0.389538 0.217296 0.103293
-0.333608 0.213888 0.099063
-0.426056 0.216481 0.102236
-0.340124 0.216780 0.100091
-0.397220 0.221430 0.102539
-0.436913 0.227799 0.101422
-0.427437 0.227897 0.102369
-0.408168 0.223390 0.101202
-0.447237 0.230180 0.100850
-0.417991 0.226974 0.101691
-0.457087 0.235572 0.102755
-0.421839 0.234217 0.099935
-0.467192 0.238071 0.103072
-0.429476 0.235975 0.101765
-0.475481 0.238744 0.102018
-0.476350 0.244293 0.102435
-0.437056 0.237772 0.103152
-0.447350 0.244582 0.100609
-0.457509 0.244037 0.104398
-0.466431 0.246109 0.103119
-0.341149 0.258071 0.101318
-0.346413 0.259490 0.101162
-0.332976 0.260992 0.099836
-0.330421 0.267268 0.101864
-0.292245 0.266973 0.102513
-0.281563 0.267086 0.100447
-0.347426 0.267759 0.101761
-0.321166 0.268878 0.101711
-0.303140 0.267302 0.102417
-0.272022 0.269364 0.099035
-0.311848 0.269453 0.104363
-0.350849 0.276651 0.104265
-0.263959 0.275571 0.101550
-0.366400 0.277069 0.101805
-0.256948 0.277604 0.099352
-0.369996 0.286653 0.103143
-0.264428 0.282067 0.101512
-0.272654 0.284002 0.103815
-0.378017 0.288696 0.102151
-0.282019 0.287356 0.104725
-0.379252 0.295457 0.104535
-0.291858 0.291411 0.103079
-0.300808 0.294603 0.102784
-0.309234 0.298222 0.101817
-0.382904 0.306167 0.104129
-0.314306 0.300628 0.101100
-0.384923 0.306515 0.101070
-0.321071 0.303928 0.102863
-0.329028 0.308298 0.103058
-0.332834 0.310920 0.103541
-0.388150 0.314922 0.103162
-0.339743 0.315742 0.104253
-0.351235 0.317917 0.104081
-0.359025 0.318369 0.103133
-0.350075 0.320131 0.099352
-0.363641 0.320750 0.103611
-0.395797 0.325626 0.103476
-0.368554 0.325773 0.103307
-0.398918 0.332898 0.103187
-0.372743 0.330060 0.102740
-0.377912 0.334828 0.104568
-0.382482 0.340877 0.101796
-0.396982 0.342935 0.103990
-0.387762 0.342841 0.103636
-0.041302 -0.273792 0.101071
0.310835 -0.266975 0.103509
0.319745 -0.266852 0.104221
0.385900 -0.255311 0.103820
-0.205403 -0.248898 0.104568
-0.194882 -0.250062 0.103117
-0.185135 -0.247278 0.104012
0.093703 -0.253791 0.104317
-0.137332 -0.238907 0.104019
0.005477 -0.226839 0.104309
0.422564 -0.214768 0.103219
-0.310919 -0.200204 0.104248
0.173103 -0.190914 0.104282
0.156952 -0.161836 0.102109
0.240837 -0.151734 0.105956
-0.008487 -0.150127 0.105318
-0.330391 -0.131370 0.103431
-0.330444 -0.120779 0.103364
-0.330104 -0.102513 0.103258
-0.321668 -0.083047 0.103259
0.243608 -0.074045 0.105999
-0.311156 -0.062934 0.103115
0.241299 -0.053631 0.102981
-0.222960 -0.054696 0.103806
0.250986 -0.052348 0.104085
0.241800 -0.044875 0.101168
-0.242743 -0.044424 0.101956
0.269009 -0.044474 0.105672
-0.254509 -0.044053 0.103024
0.405067 -0.045571 0.105692
0.254436 -0.038887 0.099259
-0.262712 -0.036692 0.100677
-0.350653 0.165041 0.103675
-0.292108 0.164005 0.102897
-0.313316 0.165026 0.103296
-0.431421 0.185733 0.103219
-0.272442 0.275262 0.103694
0.230221 -0.258698 0.105233
-0.157032 -0.238259 0.104644
-0.147027 -0.237582 0.104267
0.003853 -0.232896 0.102789
-0.282971 -0.228708 0.105149
0.079035 -0.229246 0.104347
-0.303351 -0.209598 0.105350
0.191774 -0.205803 0.106852
0.192231 -0.199050 0.105802
0.429741 -0.203680 0.102789
0.252139 -0.193812 0.105738
0.163533 -0.179899 0.104472
-0.320310 -0.178825 0.104944
0.243461 -0.159923 0.107580
-0.329165 -0.152638 0.102991
0.297082 -0.156292 0.105224
0.160724 -0.150354 0.103675
-0.330024 -0.142240 0.102802
0.257839 -0.130267 0.106390
-0.330841 -0.110697 0.103052
0.214658 -0.084906 0.106524
0.231772 -0.076685 0.106646
-0.319293 -0.073937 0.102735
0.248472 -0.073292 0.107167
0.231271 -0.053692 0.105066
-0.291970 -0.052506 0.103111
-0.233765 -0.053827 0.105123
0.260445 -0.050364 0.105385
-0.272686 -0.046336 0.103044
0.426247 -0.044929 0.105830
0.266415 -0.013461 0.103731
-0.311472 0.188321 0.104541
-0.339495 0.265976 0.103947
-0.280973 0.274987 0.105178
-0.022489 -0.272946 0.105141
0.251104 -0.270357 0.105714
0.277497 -0.272553 0.104508
0.199364 -0.255050 0.105654
0.071973 -0.249528 0.105741
-0.182531 -0.240278 0.106851
-0.174231 -0.239669 0.106483
-0.165650 -0.239176 0.106192
0.071071 -0.242901 0.105078
-0.263134 -0.239703 0.106135
-0.126953 -0.239620 0.105419
-0.117836 -0.241178 0.105459
-0.293702 -0.218178 0.106825
-0.311063 -0.193601 0.106127
0.182936 -0.192787 0.106492
0.162571 -0.170164 0.107116
0.261768 -0.167163 0.106469
0.161827 -0.160073 0.107016
-0.019057 -0.138733 0.107115
0.251180 -0.131532 0.107285
-0.029948 -0.131563 0.105641
-0.321156 -0.094001 0.106897
-0.313298 -0.083080 0.106922
-0.310838 -0.073947 0.105659
0.447572 -0.063504 0.105614
-0.301219 -0.064916 0.105406
0.383904 -0.061496 0.105476
0.229977 -0.060351 0.107172
-0.292408 -0.063206 0.105840
-0.211793 -0.059816 0.105533
-0.281094 -0.052730 0.104122
0.393803 -0.051823 0.106469
-0.271029 -0.053687 0.105172
-0.244171 -0.053060 0.105996
-0.263486 -0.045784 0.103941
0.231642 -0.043677 0.104426
0.434496 -0.051170 0.106586
0.268461 -0.023498 0.106127
0.266213 -0.004613 0.105763
-0.301131 0.164103 0.105259
-0.395331 0.173231 0.104508
-0.292175 0.179487 0.105898
-0.320685 0.189872 0.106673
-0.380952 0.213712 0.105618
-0.419181 0.219633 0.106132
-0.408665 0.221602 0.105600
-0.401088 0.222908 0.105474
-0.446451 0.236937 0.104531
-0.340001 0.276420 0.106622
-0.329170 0.273877 0.106150
-0.320962 0.271746 0.105359
-0.292177 0.273248 0.105709
0.204374 -0.247164 0.112227
0.211942 -0.244484 0.110080
0.400926 -0.242348 0.106226
0.003991 -0.235474 0.106226
0.250179 -0.199380 0.113464
0.252857 -0.191792 0.112432
-0.314307 -0.180192 0.107644
0.233645 -0.170742 0.111851
-0.321002 -0.168960 0.106627
-0.322405 -0.159856 0.106999
-0.006150 -0.156418 0.106226
-0.322232 -0.150117 0.107607
-0.323267 -0.142463 0.107203
0.260158 -0.132043 0.111678
0.333351 -0.135047 0.106226
0.458016 -0.102602 0.107136
-0.301637 -0.074232 0.107396
-0.281555 -0.062711 0.106532
-0.271703 -0.062549 0.107077
0.237105 -0.058847 0.106298
0.226181 -0.053638 0.107758
-0.263481 -0.053089 0.105871
0.418707 -0.044137 0.106438
0.228187 -0.007328 0.107086
-0.327447 0.164025 0.106226
-0.321861 0.163804 0.106226
-0.312839 0.164084 0.107086
-0.338254 0.200508 0.106898
-0.370301 0.293331 0.107476
-0.288778 0.289948 0.106226
-0.393612 0.322385 0.106226
-0.022049 -0.273204 0.113710
-0.083277 -0.271695 0.110128
-0.077583 -0.273027 0.110837
-0.017317 -0.271635 0.111951
0.259451 -0.271796 0.108089
0.263748 -0.272105 0.109663
0.270794 -0.272621 0.111473
0.278745 -0.272791 0.113294
0.289252 -0.272603 0.111911
0.347343 -0.271461 0.111626
-0.012441 -0.267484 0.111771
0.251516 -0.265525 0.111070
0.261250 -0.268224 0.114091
0.299971 -0.271282 0.110551
0.337852 -0.271212 0.112640
0.358815 -0.269815 0.112608
0.367379 -0.266056 0.112597
-0.089122 -0.267478 0.112102
0.309464 -0.270914 0.111859
0.372887 -0.264214 0.108990
-0.093088 -0.260961 0.108804
-0.007236 -0.261252 0.112241
0.237110 -0.260393 0.108320
0.377585 -0.258442 0.114308
-0.098799 -0.256810 0.113565
0.193247 -0.258985 0.112255
0.384151 -0.254520 0.111898
-0.003358 -0.255317 0.111871
0.201666 -0.256902 0.113158
0.231954 -0.255589 0.109121
-0.100619 -0.252299 0.108738
0.078719 -0.247945 0.110192
0.094639 -0.252889 0.109813
0.097239 -0.251672 0.112724
0.172716 -0.256211 0.113814
0.388428 -0.250566 0.114109
0.106525 -0.250043 0.111392
0.232066 -0.248542 0.113518
-0.222280 -0.248915 0.112904
-0.213957 -0.247265 0.113112
-0.108090 -0.246578 0.112270
0.395001 -0.246009 0.112673
-0.233903 -0.248184 0.112237
0.000270 -0.248806 0.112461
0.144868 -0.248739 0.113758
0.154706 -0.250652 0.113560
-0.243785 -0.246269 0.113800
-0.205987 -0.244518 0.112621
-0.198337 -0.243030 0.109383
-0.194637 -0.239297 0.113080
0.003047 -0.242030 0.111518
0.221532 -0.238479 0.113401
-0.256984 -0.241781 0.107729
-0.186977 -0.236616 0.110728
0.400463 -0.241782 0.111555
-0.116661 -0.239561 0.112665
-0.262523 -0.235645 0.111207
0.404928 -0.236595 0.114979
-0.125147 -0.234978 0.112001
0.078168 -0.237042 0.110282
-0.166050 -0.233702 0.109091
-0.274347 -0.230068 0.108147
-0.138105 -0.232636 0.107937
-0.136472 -0.227444 0.112244
0.004980 -0.236637 0.112709
-0.153869 -0.230680 0.108042
-0.149034 -0.229684 0.108314
0.078851 -0.226966 0.109286
-0.146684 -0.226856 0.110040
0.007690 -0.227334 0.113660
0.413405 -0.226910 0.112974
-0.278469 -0.225219 0.109975
-0.288005 -0.217539 0.109681
0.081030 -0.219774 0.109757
0.143885 -0.218869 0.113467
0.154868 -0.220900 0.111668
0.162757 -0.221448 0.113625
0.009188 -0.218698 0.112968
0.173508 -0.217975 0.113768
0.418400 -0.220680 0.111956
0.084298 -0.217455 0.113247
0.123335 -0.216517 0.113562
0.133872 -0.217410 0.114502
0.421919 -0.215501 0.113575
0.179620 -0.214961 0.109876
-0.291430 -0.209262 0.111729
0.104562 -0.212130 0.112989
0.115210 -0.215275 0.113027
0.184613 -0.210031 0.113541
0.010360 -0.208894 0.111927
0.088787 -0.212169 0.111122
0.095999 -0.211544 0.114241
0.188601 -0.206093 0.113408
0.426916 -0.208360 0.112320
-0.299562 -0.207117 0.108531
0.253683 -0.205552 0.109804
0.009998 -0.199292 0.113628
0.257431 -0.198330 0.111870
0.194489 -0.198828 0.113049
0.432538 -0.199272 0.112650
-0.305964 -0.196805 0.108154
0.194220 -0.189776 0.112864
-0.308471 -0.189255 0.109134
0.006637 -0.189224 0.112155
0.172322 -0.182627 0.107838
0.443547 -0.177797 0.113214
-0.059593 -0.177395 0.112805
-0.050056 -0.178730 0.113343
0.001691 -0.179764 0.112919
-0.044966 -0.174737 0.110237
-0.002960 -0.171788 0.112101
0.166493 -0.168982 0.110122
-0.069284 -0.169839 0.112652
-0.038662 -0.170961 0.113276
0.250133 -0.170525 0.112034
0.237298 -0.167170 0.110293
0.446717 -0.169309 0.114362
0.269075 -0.167503 0.113593
-0.078242 -0.160489 0.112226
-0.033757 -0.160086 0.108171
0.239226 -0.161839 0.112239
0.448919 -0.162954 0.113219
0.279904 -0.163309 0.112592
-0.009957 -0.160367 0.111359
0.252963 -0.160371 0.112670
0.288316 -0.161305 0.113131
-0.318550 -0.159847 0.109197
0.250431 -0.150837 0.111845
0.299032 -0.157040 0.113626
-0.028945 -0.151261 0.111048
0.243880 -0.153136 0.110722
0.303546 -0.154794 0.109130
-0.011041 -0.152547 0.109345
0.310540 -0.151877 0.112832
0.452690 -0.151443 0.112538
-0.088030 -0.150279 0.113909
0.165998 -0.151978 0.111176
0.258004 -0.151458 0.112151
0.317221 -0.147581 0.112615
-0.091976 -0.145073 0.111874
0.321660 -0.144890 0.113390
-0.018122 -0.144425 0.109351
0.165902 -0.142509 0.109018
-0.095828 -0.141054 0.112367
0.328264 -0.140137 0.112825
0.253346 -0.131778 0.111306
0.455530 -0.132918 0.113469
-0.323807 -0.132466 0.108003
-0.101220 -0.135222 0.111449
-0.107095 -0.130130 0.113558
0.337744 -0.131262 0.112117
-0.110618 -0.125722 0.110044
0.342666 -0.126406 0.110141
0.348361 -0.120787 0.112245
0.246765 -0.119825 0.107734
-0.323723 -0.120614 0.107584
-0.117537 -0.121384 0.114177
0.175774 -0.122849 0.112057
-0.323451 -0.111090 0.107350
-0.127067 -0.112777 0.113281
0.246566 -0.115747 0.107473
0.355730 -0.111488 0.113580
0.184053 -0.110970 0.113456
