ply
format ascii 1.0
element vertex 1682
property float x
property float y
property float z
end_header
0.317637 -0.053196 -0.039695
0.317637 -0.043196 -0.069695
0.317637 -0.043196 -0.059695
0.317637 -0.033196 -0.069695
0.317637 -0.033196 -0.059695
0.317637 -0.043196 -0.049695
0.317637 -0.043196 -0.039695
0.327637 -0.043196 -0.059695
0.327637 -0.033196 -0.069695
0.327637 -0.033196 -0.059695
0.327637 -0.043196 -0.039695
0.327637 -0.033196 -0.049695
0.327637 -0.033196 -0.039695
0.307637 -0.023196 -0.099695
0.307637 -0.013196 -0.109695
0.307637 -0.013196 -0.099695
0.317637 -0.023196 -0.099695
0.317637 -0.013196 -0.099695
0.317637 -0.023196 -0.089695
0.317637 -0.013196 -0.089695
0.307637 -0.003196 -0.109695
0.307637 0.006804 -0.109695
0.317637 -0.003196 -0.109695
0.317637 -0.003196 -0.099695
0.317637 0.006804 -0.109695
0.317637 0.006804 -0.099695
0.327637 -0.023196 -0.079695
0.327637 -0.013196 -0.089695
0.327637 -0.013196 -0.079695
0.327637 0.006804 -0.099695
0.327637 -0.003196 -0.089695
0.327637 0.006804 -0.089695
0.337637 -0.003196 -0.079695
0.337637 0.006804 -0.089695
0.337637 0.006804 -0.079695
0.327637 -0.023196 -0.069695
0.327637 -0.023196 -0.059695
0.337637 -0.023196 -0.059695
0.337637 -0.013196 -0.069695
0.337637 -0.013196 -0.059695
0.327637 -0.023196 -0.049695
0.337637 -0.023196 -0.049695
0.337637 -0.023196 -0.039695
0.337637 -0.013196 -0.049695
0.337637 -0.013196 -0.039695
0.337637 -0.003196 -0.069695
0.337637 -0.003196 -0.059695
0.337637 0.006804 -0.069695
0.347637 -0.013196 -0.039695
0.347637 0.006804 -0.069695
0.347637 0.006804 -0.059695
0.347637 -0.003196 -0.049695
0.347637 -0.003196 -0.039695
0.347637 0.006804 -0.049695
0.357637 -0.003196 -0.039695
0.357637 0.006804 -0.039695
0.267637 0.016804 -0.129695
0.267637 0.026804 -0.129695
0.277637 0.016804 -0.129695
0.277637 0.026804 -0.129695
0.267637 0.046804 -0.129695
0.277637 0.046804 -0.129695
0.287637 0.016804 -0.129695
0.287637 0.016804 -0.119695
0.287637 0.026804 -0.129695
0.287637 0.026804 -0.119695
0.297637 0.016804 -0.119695
0.297637 0.026804 -0.119695
0.287637 0.036804 -0.129695
0.287637 0.046804 -0.129695
0.297637 0.036804 -0.119695
0.297637 0.046804 -0.129695
0.297637 0.046804 -0.119695
0.267637 0.056804 -0.129695
0.267637 0.066804 -0.129695
0.277637 0.056804 -0.129695
0.277637 0.066804 -0.129695
0.267637 0.076804 -0.129695
0.267637 0.086804 -0.129695
0.277637 0.076804 -0.129695
0.287637 0.056804 -0.129695
0.287637 0.066804 -0.129695
0.297637 0.066804 -0.119695
0.287637 0.086804 -0.129695
0.297637 0.086804 -0.129695
0.297637 0.086804 -0.119695
0.307637 0.016804 -0.119695
0.307637 0.026804 -0.119695
0.317637 0.026804 -0.119695
0.307637 0.036804 -0.119695
0.307637 0.046804 -0.119695
0.317637 0.046804 -0.119695
0.307637 0.056804 -0.119695
0.307637 0.066804 -0.119695
0.317637 0.056804 -0.119695
0.317637 0.066804 -0.119695
0.307637 0.086804 -0.119695
0.317637 0.076804 -0.119695
0.317637 0.086804 -0.119695
0.317637 0.016804 -0.109695
0.317637 0.026804 -0.109695
0.317637 0.046804 -0.109695
0.327637 0.016804 -0.099695
0.327637 0.026804 -0.109695
0.337637 0.016804 -0.099695
0.337637 0.026804 -0.099695
0.337637 0.016804 -0.089695
0.337637 0.016804 -0.079695
0.337637 0.026804 -0.089695
0.337637 0.026804 -0.079695
0.327637 0.036804 -0.109695
0.327637 0.036804 -0.099695
0.327637 0.046804 -0.109695
0.337637 0.036804 -0.099695
0.337637 0.046804 -0.099695
0.337637 0.036804 -0.089695
0.317637 0.056804 -0.109695
0.317637 0.066804 -0.109695
0.327637 0.056804 -0.109695
0.327637 0.066804 -0.109695
0.337637 0.056804 -0.099695
0.337637 0.066804 -0.109695
0.337637 0.066804 -0.099695
0.327637 0.076804 -0.109695
0.327637 0.086804 -0.109695
0.337637 0.076804 -0.099695
0.337637 0.086804 -0.109695
0.267637 0.106804 -0.129695
0.277637 0.096804 -0.129695
0.267637 0.116804 -0.129695
0.267637 0.126804 -0.129695
0.277637 0.116804 -0.129695
0.277637 0.126804 -0.129695
0.287637 0.096804 -0.129695
0.287637 0.106804 -0.129695
0.297637 0.096804 -0.119695
0.297637 0.106804 -0.119695
0.287637 0.116804 -0.129695
0.287637 0.126804 -0.129695
0.287637 0.126804 -0.119695
0.297637 0.116804 -0.119695
0.297637 0.126804 -0.119695
0.267637 0.136804 -0.129695
0.267637 0.146804 -0.129695
0.277637 0.136804 -0.119695
0.277637 0.146804 -0.119695
0.267637 0.156804 -0.119695
0.267637 0.166804 -0.119695
0.277637 0.156804 -0.119695
0.277637 0.166804 -0.119695
0.287637 0.136804 -0.119695
0.287637 0.146804 -0.119695
0.297637 0.136804 -0.119695
0.287637 0.156804 -0.119695
0.287637 0.166804 -0.119695
0.297637 0.156804 -0.119695
0.307637 0.096804 -0.119695
0.307637 0.106804 -0.119695
0.317637 0.096804 -0.119695
0.317637 0.106804 -0.119695
0.307637 0.116804 -0.119695
0.307637 0.126804 -0.119695
0.317637 0.116804 -0.119695
0.307637 0.136804 -0.119695
0.297637 0.146804 -0.109695
0.287637 0.166804 -0.109695
0.297637 0.156804 -0.109695
0.297637 0.166804 -0.109695
0.317637 0.106804 -0.109695
0.307637 0.126804 -0.109695
0.317637 0.116804 -0.109695
0.317637 0.126804 -0.109695
0.327637 0.096804 -0.109695
0.327637 0.106804 -0.109695
0.337637 0.096804 -0.099695
0.337637 0.106804 -0.099695
0.337637 0.106804 -0.089695
0.327637 0.116804 -0.109695
0.327637 0.116804 -0.099695
0.327637 0.126804 -0.099695
0.337637 0.116804 -0.099695
0.337637 0.126804 -0.099695
0.337637 0.116804 -0.089695
0.337637 0.126804 -0.089695
0.337637 0.126804 -0.079695
0.307637 0.136804 -0.109695
0.307637 0.146804 -0.109695
0.317637 0.136804 -0.109695
0.317637 0.146804 -0.109695
0.317637 0.146804 -0.099695
0.307637 0.156804 -0.109695
0.307637 0.156804 -0.099695
0.307637 0.166804 -0.109695
0.307637 0.166804 -0.099695
0.317637 0.156804 -0.099695
0.317637 0.166804 -0.099695
0.317637 0.166804 -0.089695
0.327637 0.136804 -0.099695
0.327637 0.146804 -0.099695
0.327637 0.136804 -0.089695
0.327637 0.146804 -0.089695
0.337637 0.136804 -0.089695
0.337637 0.136804 -0.079695
0.337637 0.146804 -0.089695
0.337637 0.146804 -0.079695
0.327637 0.156804 -0.089695
0.327637 0.156804 -0.079695
0.327637 0.166804 -0.089695
0.327637 0.166804 -0.079695
0.337637 0.156804 -0.079695
0.327637 0.166804 -0.069695
0.337637 0.156804 -0.069695
0.337637 0.166804 -0.069695
0.337637 0.166804 -0.059695
0.347637 0.016804 -0.079695
0.347637 0.026804 -0.079695
0.347637 0.036804 -0.089695
0.347637 0.036804 -0.079695
0.347637 0.046804 -0.089695
0.347637 0.046804 -0.079695
0.347637 0.016804 -0.069695
0.347637 0.016804 -0.059695
0.347637 0.026804 -0.069695
0.347637 0.026804 -0.059695
0.357637 0.026804 -0.059695
0.347637 0.016804 -0.049695
0.357637 0.016804 -0.049695
0.357637 0.016804 -0.039695
0.357637 0.026804 -0.049695
0.357637 0.026804 -0.039695
0.347637 0.036804 -0.069695
0.357637 0.036804 -0.069695
0.357637 0.036804 -0.059695
0.357637 0.046804 -0.069695
0.357637 0.046804 -0.059695
0.357637 0.036804 -0.049695
0.357637 0.046804 -0.049695
0.367637 0.016804 -0.039695
0.367637 0.026804 -0.039695
0.377637 0.026804 -0.039695
0.367637 0.036804 -0.049695
0.367637 0.036804 -0.039695
0.367637 0.046804 -0.049695
0.377637 0.036804 -0.039695
0.377637 0.046804 -0.039695
0.347637 0.056804 -0.099695
0.347637 0.056804 -0.089695
0.347637 0.066804 -0.089695
0.357637 0.056804 -0.079695
0.357637 0.066804 -0.079695
0.347637 0.076804 -0.089695
0.347637 0.086804 -0.089695
0.357637 0.086804 -0.079695
0.357637 0.056804 -0.069695
0.357637 0.056804 -0.059695
0.357637 0.066804 -0.069695
0.357637 0.076804 -0.069695
0.357637 0.086804 -0.069695
0.367637 0.066804 -0.059695
0.367637 0.056804 -0.049695
0.367637 0.066804 -0.049695
0.377637 0.056804 -0.049695
0.377637 0.066804 -0.049695
0.367637 0.076804 -0.059695
0.367637 0.086804 -0.069695
0.367637 0.086804 -0.059695
0.377637 0.076804 -0.049695
0.377637 0.086804 -0.049695
0.387637 0.026804 -0.039695
0.397637 0.016804 -0.039695
0.397637 0.026804 -0.039695
0.387637 0.036804 -0.039695
0.387637 0.046804 -0.049695
0.387637 0.046804 -0.039695
0.397637 0.036804 -0.049695
0.397637 0.036804 -0.039695
0.397637 0.046804 -0.049695
0.407637 0.016804 -0.039695
0.407637 0.026804 -0.039695
0.417637 0.026804 -0.039695
0.407637 0.036804 -0.049695
0.407637 0.036804 -0.039695
0.407637 0.046804 -0.049695
0.417637 0.036804 -0.039695
0.417637 0.046804 -0.049695
0.417637 0.046804 -0.039695
0.397637 0.066804 -0.059695
0.387637 0.056804 -0.049695
0.387637 0.066804 -0.049695
0.397637 0.056804 -0.049695
0.397637 0.066804 -0.049695
0.397637 0.076804 -0.059695
0.387637 0.076804 -0.049695
0.397637 0.086804 -0.049695
0.407637 0.066804 -0.059695
0.407637 0.066804 -0.049695
0.417637 0.056804 -0.049695
0.417637 0.066804 -0.049695
0.407637 0.076804 -0.059695
0.407637 0.086804 -0.059695
0.417637 0.076804 -0.059695
0.417637 0.086804 -0.059695
0.417637 0.076804 -0.049695
0.347637 0.096804 -0.089695
0.347637 0.096804 -0.079695
0.347637 0.106804 -0.089695
0.347637 0.106804 -0.079695
0.357637 0.096804 -0.079695
0.357637 0.106804 -0.079695
0.347637 0.116804 -0.079695
0.347637 0.126804 -0.089695
0.347637 0.126804 -0.079695
0.357637 0.096804 -0.069695
0.357637 0.106804 -0.069695
0.357637 0.106804 -0.059695
0.347637 0.126804 -0.069695
0.357637 0.116804 -0.069695
0.357637 0.116804 -0.059695
0.357637 0.126804 -0.069695
0.357637 0.126804 -0.059695
0.367637 0.096804 -0.059695
0.367637 0.106804 -0.059695
0.377637 0.096804 -0.049695
0.377637 0.106804 -0.049695
0.367637 0.116804 -0.059695
0.367637 0.126804 -0.059695
0.377637 0.116804 -0.059695
0.367637 0.126804 -0.039695
0.377637 0.116804 -0.049695
0.377637 0.116804 -0.039695
0.377637 0.126804 -0.049695
0.377637 0.126804 -0.039695
0.347637 0.136804 -0.079695
0.347637 0.136804 -0.069695
0.347637 0.146804 -0.069695
0.357637 0.136804 -0.069695
0.357637 0.136804 -0.059695
0.357637 0.146804 -0.059695
0.357637 0.146804 -0.039695
0.347637 0.156804 -0.069695
0.347637 0.156804 -0.059695
0.347637 0.166804 -0.059695
0.357637 0.156804 -0.059695
0.357637 0.166804 -0.059695
0.347637 0.156804 -0.039695
0.347637 0.166804 -0.039695
0.357637 0.156804 -0.049695
0.357637 0.156804 -0.039695
0.357637 0.166804 -0.049695
0.357637 0.166804 -0.039695
0.367637 0.136804 -0.059695
0.367637 0.146804 -0.059695
0.367637 0.136804 -0.039695
0.367637 0.146804 -0.049695
0.367637 0.146804 -0.039695
0.377637 0.136804 -0.049695
0.377637 0.136804 -0.039695
0.367637 0.156804 -0.049695
0.367637 0.166804 -0.049695
0.397637 0.096804 -0.059695
0.397637 0.106804 -0.059695
0.387637 0.096804 -0.049695
0.387637 0.106804 -0.049695
0.397637 0.106804 -0.049695
0.397637 0.116804 -0.059695
0.387637 0.116804 -0.049695
0.387637 0.126804 -0.049695
0.397637 0.116804 -0.049695
0.397637 0.126804 -0.049695
0.407637 0.096804 -0.059695
0.407637 0.106804 -0.059695
0.417637 0.106804 -0.059695
0.407637 0.116804 -0.059695
0.417637 0.116804 -0.059695
0.407637 0.126804 -0.049695
0.387637 0.136804 -0.049695
0.387637 0.136804 -0.039695
0.387637 0.146804 -0.049695
0.387637 0.146804 -0.039695
0.397637 0.136804 -0.049695
0.397637 0.146804 -0.049695
0.397637 0.146804 -0.039695
0.407637 0.136804 -0.049695
0.407637 0.146804 -0.049695
0.407637 0.146804 -0.039695
0.417637 0.136804 -0.049695
0.417637 0.146804 -0.049695
0.407637 0.156804 -0.039695
0.407637 0.166804 -0.039695
0.417637 0.156804 -0.049695
0.417637 0.156804 -0.039695
0.417637 0.166804 -0.039695
0.427637 0.056804 -0.039695
0.427637 0.066804 -0.039695
0.427637 0.086804 -0.059695
0.427637 0.076804 -0.049695
0.427637 0.086804 -0.049695
0.437637 0.076804 -0.039695
0.437637 0.086804 -0.039695
0.447637 0.086804 -0.039695
0.427637 0.096804 -0.059695
0.427637 0.106804 -0.059695
0.437637 0.096804 -0.049695
0.437637 0.106804 -0.049695
0.427637 0.116804 -0.059695
0.427637 0.126804 -0.059695
0.437637 0.126804 -0.059695
0.437637 0.126804 -0.049695
0.447637 0.096804 -0.039695
0.447637 0.106804 -0.049695
0.457637 0.106804 -0.039695
0.447637 0.116804 -0.049695
0.447637 0.126804 -0.049695
0.457637 0.116804 -0.039695
0.457637 0.126804 -0.049695
0.427637 0.136804 -0.049695
0.427637 0.146804 -0.049695
0.437637 0.136804 -0.049695
0.437637 0.146804 -0.049695
0.427637 0.156804 -0.049695
0.427637 0.156804 -0.039695
0.427637 0.166804 -0.039695
0.437637 0.156804 -0.039695
0.437637 0.166804 -0.039695
0.447637 0.136804 -0.049695
0.447637 0.146804 -0.049695
0.457637 0.136804 -0.049695
0.457637 0.146804 -0.039695
0.447637 0.156804 -0.039695
0.447637 0.166804 -0.039695
0.457637 0.156804 -0.039695
0.467637 0.106804 -0.039695
0.467637 0.116804 -0.039695
0.467637 0.126804 -0.039695
0.477637 0.126804 -0.039695
0.467637 0.136804 -0.039695
0.467637 0.146804 -0.039695
0.477637 0.136804 -0.039695
0.477637 0.146804 -0.039695
0.467637 0.156804 -0.039695
0.267637 0.176804 -0.119695
0.267637 0.186804 -0.119695
0.277637 0.176804 -0.119695
0.267637 0.186804 -0.109695
0.277637 0.176804 -0.109695
0.277637 0.186804 -0.109695
0.267637 0.196804 -0.109695
0.267637 0.196804 -0.099695
0.267637 0.206804 -0.099695
0.277637 0.196804 -0.109695
0.277637 0.196804 -0.099695
0.267637 0.206804 -0.089695
0.277637 0.206804 -0.089695
0.287637 0.176804 -0.109695
0.287637 0.186804 -0.109695
0.287637 0.186804 -0.099695
0.297637 0.176804 -0.109695
0.297637 0.176804 -0.099695
0.297637 0.186804 -0.099695
0.297637 0.186804 -0.089695
0.287637 0.196804 -0.099695
0.287637 0.196804 -0.089695
0.287637 0.206804 -0.089695
0.287637 0.206804 -0.079695
0.297637 0.196804 -0.089695
0.297637 0.196804 -0.079695
0.297637 0.206804 -0.079695
0.297637 0.206804 -0.069695
0.297637 0.206804 -0.039695
0.267637 0.216804 -0.089695
0.267637 0.216804 -0.079695
0.267637 0.226804 -0.079695
0.277637 0.216804 -0.079695
0.287637 0.216804 -0.079695
0.267637 0.226804 -0.069695
0.277637 0.216804 -0.069695
0.277637 0.226804 -0.069695
0.267637 0.216804 -0.039695
0.267637 0.226804 -0.049695
0.267637 0.226804 -0.039695
0.277637 0.216804 -0.039695
0.277637 0.226804 -0.039695
0.267637 0.236804 -0.069695
0.267637 0.246804 -0.069695
0.267637 0.246804 -0.059695
0.277637 0.236804 -0.069695
0.277637 0.236804 -0.059695
0.277637 0.246804 -0.059695
0.267637 0.236804 -0.049695
0.267637 0.246804 -0.049695
0.277637 0.236804 -0.049695
0.287637 0.216804 -0.069695
0.287637 0.226804 -0.069695
0.297637 0.216804 -0.069695
0.297637 0.216804 -0.059695
0.297637 0.226804 -0.059695
0.287637 0.216804 -0.039695
0.287637 0.226804 -0.049695
0.287637 0.226804 -0.039695
0.297637 0.216804 -0.049695
0.297637 0.226804 -0.049695
0.287637 0.236804 -0.059695
0.297637 0.236804 -0.059695
0.287637 0.236804 -0.049695
0.297637 0.236804 -0.049695
0.307637 0.176804 -0.099695
0.307637 0.176804 -0.089695
0.307637 0.186804 -0.089695
0.307637 0.186804 -0.079695
0.317637 0.176804 -0.089695
0.317637 0.176804 -0.079695
0.317637 0.186804 -0.079695
0.307637 0.196804 -0.079695
0.327637 0.176804 -0.079695
0.317637 0.186804 -0.069695
0.307637 0.196804 -0.069695
0.307637 0.206804 -0.069695
0.317637 0.196804 -0.069695
0.317637 0.196804 -0.059695
0.317637 0.206804 -0.069695
0.317637 0.206804 -0.059695
0.307637 0.196804 -0.039695
0.307637 0.206804 -0.039695
0.317637 0.196804 -0.039695
0.317637 0.206804 -0.039695
0.327637 0.176804 -0.069695
0.327637 0.186804 -0.069695
0.327637 0.186804 -0.059695
0.337637 0.176804 -0.069695
0.337637 0.176804 -0.059695
0.337637 0.186804 -0.059695
0.327637 0.186804 -0.039695
0.337637 0.176804 -0.039695
0.337637 0.186804 -0.039695
0.327637 0.196804 -0.059695
0.327637 0.206804 -0.059695
0.337637 0.196804 -0.059695
0.327637 0.196804 -0.049695
0.327637 0.196804 -0.039695
0.327637 0.206804 -0.049695
0.337637 0.196804 -0.049695
0.307637 0.216804 -0.059695
0.307637 0.226804 -0.059695
0.317637 0.216804 -0.059695
0.307637 0.216804 -0.049695
0.307637 0.226804 -0.049695
0.317637 0.216804 -0.049695
0.327637 0.216804 -0.049695
0.347637 0.176804 -0.059695
0.347637 0.186804 -0.059695
0.357637 0.176804 -0.059695
0.347637 0.176804 -0.049695
0.347637 0.176804 -0.039695
0.347637 0.186804 -0.049695
-0.382363 -0.123196 0.010305
-0.382363 -0.123196 0.020305
-0.382363 -0.113196 0.020305
-0.382363 -0.123196 0.030305
-0.382363 -0.123196 0.040305
-0.382363 -0.113196 0.030305
-0.462363 0.166804 0.040305
-0.462363 0.166804 0.050305
-0.442363 0.156804 0.010305
-0.442363 0.156804 0.020305
-0.442363 0.166804 0.020305
-0.452363 0.156804 0.030305
-0.452363 0.166804 0.030305
-0.452363 0.166804 0.040305
-0.442363 0.156804 0.030305
-0.442363 0.156804 0.040305
-0.442363 0.166804 0.040305
-0.432363 0.146804 0.010305
-0.432363 0.146804 0.020305
-0.422363 0.146804 0.010305
-0.422363 0.146804 0.020305
-0.432363 0.156804 0.010305
-0.432363 0.156804 0.020305
-0.432363 0.166804 0.020305
-0.422363 0.156804 0.010305
-0.422363 0.166804 0.010305
-0.432363 0.156804 0.030305
-0.432363 0.166804 0.030305
-0.422363 0.156804 0.030305
-0.422363 0.166804 0.040305
-0.402363 0.156804 0.000305
-0.402363 0.166804 0.000305
-0.382363 0.146804 0.000305
-0.392363 0.156804 0.000305
-0.392363 0.166804 0.000305
-0.382363 0.156804 -0.009695
-0.382363 0.166804 -0.009695
-0.382363 0.166804 0.000305
-0.412363 0.146804 0.010305
-0.402363 0.146804 0.010305
-0.412363 0.156804 0.010305
-0.412363 0.156804 0.020305
-0.412363 0.166804 0.010305
-0.402363 0.156804 0.010305
-0.402363 0.156804 0.020305
-0.412363 0.166804 0.030305
-0.412363 0.166804 0.040305
-0.402363 0.156804 0.040305
-0.402363 0.166804 0.040305
-0.392363 0.146804 0.010305
-0.382363 0.146804 0.010305
-0.392363 0.156804 0.020305
-0.382363 0.156804 0.010305
-0.382363 0.156804 0.020305
-0.392363 0.156804 0.030305
-0.392363 0.156804 0.040305
-0.382363 0.156804 0.030305
-0.382363 0.156804 0.040305
-0.452363 0.166804 0.050305
-0.442363 0.166804 0.050305
-0.422363 0.166804 0.050305
-0.412363 0.166804 0.050305
-0.412363 0.166804 0.060305
-0.402363 0.166804 0.050305
-0.402363 0.166804 0.060305
-0.402363 0.166804 0.070305
-0.402363 0.166804 0.080305
-0.392363 0.156804 0.050305
-0.392363 0.166804 0.050305
-0.392363 0.166804 0.060305
-0.382363 0.156804 0.050305
-0.382363 0.156804 0.060305
-0.382363 0.166804 0.060305
-0.392363 0.166804 0.070305
-0.392363 0.166804 0.080305
-0.382363 0.166804 0.080305
-0.392363 0.166804 0.090305
-0.392363 0.166804 0.100305
-0.382363 0.166804 0.090305
-0.382363 0.166804 0.100305
-0.382363 0.166804 0.110305
-0.382363 0.166804 0.120305
-0.412363 0.166804 0.130305
-0.412363 0.166804 0.140305
-0.402363 0.166804 0.130305
-0.402363 0.166804 0.140305
-0.402363 0.166804 0.150305
-0.392363 0.156804 0.140305
-0.392363 0.166804 0.130305
-0.392363 0.166804 0.140305
-0.382363 0.156804 0.140305
-0.382363 0.166804 0.130305
-0.382363 0.166804 0.140305
-0.392363 0.156804 0.150305
-0.392363 0.166804 0.150305
-0.382363 0.156804 0.150305
-0.382363 0.166804 0.150305
-0.462363 0.176804 0.040305
-0.462363 0.186804 0.040305
-0.462363 0.176804 0.050305
-0.462363 0.176804 0.060305
-0.462363 0.186804 0.050305
-0.462363 0.186804 0.060305
-0.462363 0.236804 0.080305
-0.472363 0.236804 0.090305
-0.472363 0.236804 0.100305
-0.472363 0.246804 0.090305
-0.472363 0.246804 0.100305
-0.462363 0.236804 0.090305
-0.462363 0.236804 0.100305
-0.462363 0.246804 0.090305
-0.462363 0.246804 0.100305
-0.452363 0.176804 0.030305
-0.452363 0.186804 0.030305
-0.452363 0.186804 0.040305
-0.442363 0.176804 0.030305
-0.442363 0.186804 0.040305
-0.442363 0.196804 0.030305
-0.442363 0.196804 0.040305
-0.442363 0.206804 0.040305
-0.432363 0.176804 0.020305
-0.432363 0.186804 0.020305
-0.422363 0.176804 0.020305
-0.422363 0.186804 0.020305
-0.432363 0.186804 0.030305
-0.422363 0.196804 0.020305
-0.432363 0.196804 0.030305
-0.432363 0.196804 0.040305
-0.432363 0.206804 0.040305
-0.422363 0.196804 0.030305
-0.422363 0.206804 0.030305
-0.422363 0.206804 0.040305
-0.422363 0.216804 0.040305
-0.392363 0.176804 0.000305
-0.382363 0.176804 0.000305
-0.382363 0.186804 0.000305
-0.382363 0.196804 0.000305
-0.412363 0.176804 0.010305
-0.412363 0.186804 0.010305
-0.412363 0.186804 0.020305
-0.402363 0.176804 0.010305
-0.412363 0.196804 0.020305
-0.402363 0.196804 0.010305
-0.402363 0.206804 0.020305
-0.412363 0.206804 0.030305
-0.412363 0.206804 0.040305
-0.402363 0.196804 0.030305
-0.402363 0.206804 0.040305
-0.392363 0.186804 0.010305
-0.392363 0.196804 0.010305
-0.392363 0.196804 0.020305
-0.392363 0.206804 0.020305
-0.382363 0.196804 0.010305
-0.382363 0.196804 0.020305
-0.382363 0.206804 0.010305
-0.392363 0.196804 0.040305
-0.392363 0.206804 0.040305
-0.382363 0.196804 0.030305
-0.382363 0.196804 0.040305
-0.382363 0.206804 0.040305
-0.412363 0.216804 0.040305
-0.382363 0.246804 0.010305
-0.452363 0.176804 0.060305
-0.442363 0.176804 0.060305
-0.452363 0.186804 0.070305
-0.452363 0.186804 0.080305
-0.442363 0.186804 0.070305
-0.442363 0.186804 0.080305
-0.452363 0.196804 0.060305
-0.442363 0.196804 0.050305
-0.442363 0.206804 0.050305
-0.442363 0.206804 0.060305
-0.452363 0.196804 0.070305
-0.452363 0.196804 0.080305
-0.442363 0.196804 0.070305
-0.442363 0.206804 0.070305
-0.442363 0.206804 0.080305
-0.432363 0.176804 0.050305
-0.432363 0.176804 0.060305
-0.422363 0.176804 0.050305
-0.422363 0.176804 0.060305
-0.432363 0.176804 0.070305
-0.432363 0.186804 0.080305
-0.422363 0.176804 0.070305
-0.422363 0.176804 0.080305
-0.432363 0.206804 0.050305
-0.442363 0.186804 0.090305
-0.442363 0.196804 0.090305
-0.442363 0.196804 0.100305
-0.442363 0.206804 0.090305
-0.432363 0.186804 0.090305
-0.432363 0.186804 0.100305
-0.422363 0.176804 0.090305
-0.422363 0.176804 0.100305
-0.422363 0.186804 0.090305
-0.422363 0.186804 0.100305
-0.432363 0.176804 0.120305
-0.432363 0.186804 0.110305
-0.432363 0.186804 0.120305
-0.422363 0.176804 0.110305
-0.422363 0.176804 0.120305
-0.432363 0.206804 0.100305
-0.432363 0.196804 0.110305
-0.432363 0.196804 0.120305
-0.432363 0.206804 0.110305
-0.422363 0.206804 0.120305
-0.452363 0.226804 0.080305
-0.442363 0.216804 0.070305
-0.442363 0.216804 0.080305
-0.442363 0.226804 0.070305
-0.452363 0.236804 0.080305
-0.452363 0.246804 0.080305
-0.442363 0.236804 0.070305
-0.442363 0.246804 0.080305
-0.432363 0.216804 0.050305
-0.432363 0.216804 0.060305
-0.432363 0.226804 0.060305
-0.422363 0.216804 0.050305
-0.422363 0.216804 0.060305
-0.422363 0.226804 0.060305
-0.432363 0.226804 0.070305
-0.432363 0.236804 0.070305
-0.432363 0.236804 0.080305
-0.422363 0.236804 0.070305
-0.422363 0.236804 0.080305
-0.452363 0.226804 0.090305
-0.442363 0.216804 0.090305
-0.442363 0.226804 0.090305
-0.442363 0.226804 0.100305
-0.452363 0.236804 0.100305
-0.452363 0.246804 0.090305
-0.442363 0.236804 0.100305
-0.442363 0.246804 0.090305
-0.442363 0.246804 0.100305
-0.432363 0.216804 0.100305
-0.432363 0.226804 0.100305
-0.422363 0.216804 0.100305
-0.422363 0.226804 0.100305
-0.422363 0.216804 0.110305
-0.432363 0.236804 0.090305
-0.432363 0.236804 0.100305
-0.422363 0.236804 0.090305
-0.422363 0.236804 0.100305
-0.412363 0.176804 0.070305
-0.402363 0.176804 0.080305
-0.402363 0.206804 0.050305
-0.412363 0.176804 0.090305
-0.412363 0.176804 0.100305
-0.402363 0.176804 0.090305
-0.402363 0.176804 0.100305
-0.412363 0.176804 0.110305
-0.412363 0.176804 0.120305
-0.402363 0.176804 0.110305
-0.412363 0.206804 0.120305
-0.402363 0.206804 0.120305
-0.392363 0.176804 0.100305
-0.392363 0.176804 0.110305
-0.392363 0.176804 0.120305
-0.382363 0.206804 0.090305
-0.382363 0.206804 0.100305
-0.392363 0.206804 0.120305
-0.382363 0.206804 0.120305
-0.412363 0.216804 0.050305
-0.412363 0.226804 0.060305
-0.402363 0.216804 0.050305
-0.402363 0.226804 0.060305
-0.412363 0.226804 0.070305
-0.402363 0.226804 0.070305
-0.402363 0.226804 0.080305
-0.412363 0.236804 0.070305
-0.412363 0.236804 0.080305
-0.392363 0.216804 0.050305
-0.392363 0.216804 0.060305
-0.382363 0.216804 0.050305
-0.392363 0.216804 0.080305
-0.392363 0.226804 0.070305
-0.382363 0.216804 0.070305
-0.382363 0.216804 0.080305
-0.412363 0.226804 0.090305
-0.412363 0.226804 0.100305
-0.402363 0.226804 0.090305
-0.412363 0.216804 0.110305
-0.412363 0.216804 0.120305
-0.402363 0.216804 0.110305
-0.402363 0.216804 0.120305
-0.402363 0.226804 0.110305
-0.412363 0.236804 0.090305
-0.392363 0.216804 0.090305
-0.392363 0.216804 0.100305
-0.392363 0.226804 0.090305
-0.392363 0.216804 0.110305
-0.392363 0.216804 0.120305
-0.392363 0.226804 0.110305
-0.382363 0.216804 0.110305
-0.422363 0.286804 0.000305
-0.422363 0.286804 0.010305
-0.432363 0.296804 0.000305
-0.432363 0.306804 0.000305
-0.422363 0.296804 -0.009695
-0.422363 0.296804 0.000305
-0.422363 0.306804 0.000305
-0.432363 0.316804 0.000305
-0.422363 0.316804 0.000305
-0.442363 0.316804 0.020305
-0.432363 0.296804 0.010305
-0.432363 0.306804 0.010305
-0.432363 0.306804 0.020305
-0.422363 0.296804 0.010305
-0.422363 0.296804 0.020305
-0.422363 0.306804 0.020305
-0.422363 0.306804 0.030305
-0.432363 0.316804 0.010305
-0.432363 0.326804 0.010305
-0.432363 0.326804 0.020305
-0.422363 0.326804 0.010305
-0.422363 0.326804 0.020305
-0.432363 0.316804 0.030305
-0.432363 0.326804 0.030305
-0.432363 0.326804 0.040305
-0.422363 0.316804 0.030305
-0.422363 0.316804 0.040305
-0.422363 0.326804 0.040305
-0.402363 0.266804 -0.009695
-0.402363 0.276804 -0.019695
-0.402363 0.286804 -0.019695
-0.412363 0.276804 0.000305
-0.412363 0.286804 -0.009695
-0.402363 0.276804 -0.009695
-0.402363 0.276804 0.000305
-0.392363 0.266804 -0.019695
-0.382363 0.256804 -0.019695
-0.382363 0.266804 -0.029695
-0.382363 0.266804 -0.019695
-0.392363 0.266804 -0.009695
-0.392363 0.266804 0.000305
-0.382363 0.256804 -0.009695
-0.382363 0.256804 0.000305
-0.392363 0.276804 -0.029695
-0.392363 0.276804 -0.019695
-0.392363 0.286804 -0.029695
-0.392363 0.286804 -0.019695
-0.382363 0.286804 -0.029695
-0.382363 0.286804 -0.019695
-0.412363 0.286804 0.010305
-0.412363 0.286804 0.020305
-0.402363 0.276804 0.010305
-0.402363 0.276804 0.020305
-0.412363 0.286804 0.030305
-0.402363 0.276804 0.030305
-0.402363 0.286804 0.030305
-0.392363 0.266804 0.010305
-0.392363 0.266804 0.020305
-0.382363 0.256804 0.010305
-0.382363 0.266804 0.020305
-0.392363 0.276804 0.020305
-0.392363 0.286804 0.020305
-0.382363 0.276804 0.020305
-0.382363 0.286804 0.020305
-0.412363 0.296804 -0.009695
-0.412363 0.306804 0.000305
-0.402363 0.296804 -0.009695
-0.402363 0.306804 0.000305
-0.392363 0.296804 -0.019695
-0.382363 0.296804 -0.019695
-0.392363 0.306804 -0.009695
-0.392363 0.306804 0.000305
-0.382363 0.296804 -0.009695
-0.382363 0.306804 0.000305
-0.412363 0.296804 0.030305
-0.412363 0.296804 0.040305
-0.412363 0.306804 0.030305
-0.412363 0.306804 0.040305
-0.402363 0.296804 0.040305
-0.402363 0.306804 0.040305
-0.412363 0.316804 0.010305
-0.412363 0.326804 0.010305
-0.412363 0.326804 0.020305
-0.402363 0.316804 0.010305
-0.402363 0.326804 0.020305
-0.412363 0.316804 0.040305
-0.392363 0.306804 0.010305
-0.392363 0.296804 0.030305
-0.392363 0.306804 0.040305
-0.382363 0.296804 0.030305
-0.382363 0.306804 0.040305
-0.392363 0.316804 0.010305
-0.392363 0.326804 0.010305
-0.382363 0.316804 0.010305
-0.382363 0.326804 0.010305
-0.382363 0.326804 0.020305
-0.382363 0.286804 0.100305
-0.402363 0.306804 0.050305
-0.402363 0.306804 0.060305
-0.412363 0.316804 0.050305
-0.412363 0.326804 0.050305
-0.412363 0.326804 0.060305
-0.402363 0.316804 0.050305
-0.402363 0.316804 0.060305
-0.402363 0.326804 0.060305
-0.402363 0.316804 0.070305
-0.402363 0.326804 0.070305
-0.402363 0.326804 0.080305
-0.392363 0.306804 0.050305
-0.392363 0.306804 0.060305
-0.382363 0.306804 0.050305
-0.382363 0.306804 0.060305
-0.392363 0.306804 0.070305
-0.392363 0.306804 0.080305
-0.382363 0.296804 0.080305
-0.382363 0.306804 0.070305
-0.392363 0.316804 0.080305
-0.392363 0.326804 0.080305
-0.392363 0.306804 0.090305
-0.382363 0.296804 0.090305
-0.382363 0.296804 0.100305
-0.382363 0.306804 0.100305
-0.382363 0.306804 0.110305
-0.392363 0.316804 0.090305
-0.392363 0.316804 0.100305
-0.392363 0.326804 0.090305
-0.392363 0.326804 0.100305
-0.392363 0.326804 0.110305
-0.392363 0.326804 0.120305
-0.382363 0.316804 0.110305
-0.382363 0.316804 0.120305
-0.382363 0.326804 0.120305
-0.432363 0.186804 0.130305
-0.422363 0.176804 0.130305
-0.422363 0.176804 0.140305
-0.422363 0.186804 0.140305
-0.432363 0.196804 0.130305
-0.422363 0.196804 0.130305
-0.422363 0.196804 0.140305
-0.422363 0.206804 0.130305
-0.412363 0.176804 0.140305
-0.402363 0.186804 0.140305
-0.412363 0.176804 0.150305
-0.402363 0.176804 0.150305
-0.412363 0.196804 0.130305
-0.402363 0.196804 0.130305
-0.402363 0.206804 0.130305
-0.392363 0.176804 0.130305
-0.392363 0.186804 0.140305
-0.382363 0.176804 0.140305
-0.382363 0.186804 0.130305
-0.382363 0.186804 0.140305
-0.392363 0.176804 0.150305
-0.382363 0.176804 0.150305
-0.392363 0.196804 0.130305
-0.392363 0.196804 0.140305
-0.392363 0.206804 0.130305
-0.382363 0.196804 0.130305
-0.382363 0.206804 0.130305
-0.422363 0.336804 0.020305
-0.432363 0.336804 0.030305
-0.432363 0.336804 0.040305
-0.422363 0.336804 0.030305
-0.422363 0.336804 0.040305
-0.422363 0.346804 0.040305
-0.412363 0.336804 0.030305
-0.412363 0.346804 0.040305
-0.402363 0.336804 0.030305
-0.402363 0.346804 0.040305
-0.382363 0.336804 0.020305
-0.382363 0.346804 0.020305
-0.392363 0.336804 0.030305
-0.392363 0.336804 0.040305
-0.392363 0.346804 0.030305
-0.392363 0.346804 0.040305
-0.382363 0.346804 0.030305
-0.382363 0.346804 0.040305
-0.392363 0.356804 0.040305
-0.382363 0.356804 0.040305
-0.422363 0.336804 0.050305
-0.422363 0.346804 0.050305
-0.412363 0.336804 0.050305
-0.412363 0.336804 0.060305
-0.412363 0.346804 0.050305
-0.412363 0.346804 0.060305
-0.402363 0.346804 0.050305
-0.402363 0.346804 0.060305
-0.412363 0.346804 0.070305
-0.402363 0.336804 0.070305
-0.402363 0.346804 0.070305
-0.402363 0.346804 0.080305
-0.392363 0.346804 0.050305
-0.392363 0.346804 0.060305
-0.382363 0.346804 0.050305
-0.382363 0.346804 0.060305
-0.392363 0.346804 0.080305
-0.382363 0.336804 0.070305
-0.382363 0.346804 0.070305
-0.382363 0.346804 0.080305
-0.382363 0.356804 0.050305
-0.382363 0.356804 0.060305
-0.402363 0.336804 0.090305
-0.402363 0.336804 0.100305
-0.402363 0.346804 0.090305
-0.392363 0.346804 0.090305
-0.392363 0.346804 0.100305
-0.382363 0.336804 0.100305
-0.382363 0.346804 0.090305
-0.392363 0.336804 0.110305
-0.382363 0.336804 0.110305
-0.342363 -0.233196 0.010305
-0.342363 -0.233196 0.020305
-0.342363 -0.233196 0.030305
-0.342363 -0.233196 0.040305
-0.322363 -0.233196 -0.029695
-0.322363 -0.233196 -0.019695
-0.332363 -0.233196 -0.009695
-0.332363 -0.233196 0.000305
-0.322363 -0.243196 -0.009695
-0.322363 -0.243196 0.000305
-0.302363 -0.253196 -0.019695
-0.312363 -0.253196 0.000305
-0.302363 -0.253196 -0.009695
-0.302363 -0.253196 0.000305
-0.312363 -0.243196 -0.029695
-0.312363 -0.243196 -0.019695
-0.302363 -0.243196 -0.029695
-0.312363 -0.243196 -0.009695
-0.322363 -0.253196 0.010305
-0.322363 -0.253196 0.020305
-0.322363 -0.253196 0.030305
-0.332363 -0.243196 0.010305
-0.332363 -0.243196 0.020305
-0.332363 -0.233196 0.010305
-0.332363 -0.233196 0.020305
-0.322363 -0.243196 0.020305
-0.332363 -0.243196 0.030305
-0.332363 -0.233196 0.040305
-0.322363 -0.243196 0.040305
-0.312363 -0.253196 0.010305
-0.312363 -0.253196 0.020305
-0.302363 -0.263196 0.010305
-0.302363 -0.263196 0.020305
-0.312363 -0.253196 0.030305
-0.312363 -0.253196 0.040305
-0.302363 -0.263196 0.030305
-0.302363 -0.263196 0.040305
-0.332363 -0.233196 0.050305
-0.322363 -0.243196 0.050305
-0.322363 -0.233196 0.060305
-0.322363 -0.233196 0.070305
-0.322363 -0.233196 0.080305
-0.312363 -0.253196 0.050305
-0.312363 -0.253196 0.060305
-0.302363 -0.253196 0.050305
-0.302363 -0.253196 0.060305
-0.302363 -0.253196 0.070305
-0.312363 -0.243196 0.060305
-0.312363 -0.243196 0.070305
-0.312363 -0.233196 0.070305
-0.312363 -0.233196 0.080305
-0.302363 -0.243196 0.070305
-0.302363 -0.243196 0.080305
-0.312363 -0.233196 0.090305
-0.302363 -0.243196 0.090305
-0.302363 -0.233196 0.090305
-0.302363 -0.233196 0.100305
-0.362363 -0.193196 0.000305
-0.342363 -0.213196 -0.029695
-0.342363 -0.213196 -0.019695
-0.352363 -0.213196 0.000305
-0.342363 -0.223196 -0.009695
-0.342363 -0.223196 0.000305
-0.342363 -0.213196 -0.009695
-0.342363 -0.213196 0.000305
-0.352363 -0.203196 -0.019695
-0.352363 -0.193196 -0.029695
-0.352363 -0.193196 -0.019695
-0.342363 -0.203196 -0.029695
-0.342363 -0.193196 -0.029695
-0.352363 -0.203196 -0.009695
-0.352363 -0.203196 0.000305
-0.352363 -0.193196 -0.009695
-0.352363 -0.193196 0.000305
-0.362363 -0.203196 0.010305
-0.362363 -0.203196 0.020305
-0.362363 -0.193196 0.020305
-0.362363 -0.203196 0.030305
-0.362363 -0.203196 0.040305
-0.362363 -0.193196 0.030305
-0.362363 -0.193196 0.040305
-0.352363 -0.223196 0.010305
-0.352363 -0.223196 0.020305
-0.352363 -0.213196 0.010305
-0.352363 -0.213196 0.020305
-0.342363 -0.223196 0.010305
-0.342363 -0.223196 0.020305
-0.352363 -0.223196 0.030305
-0.352363 -0.213196 0.030305
-0.352363 -0.213196 0.040305
-0.342363 -0.223196 0.030305
-0.342363 -0.223196 0.040305
-0.342363 -0.213196 0.040305
-0.352363 -0.203196 0.010305
-0.352363 -0.203196 0.020305
-0.352363 -0.203196 0.040305
-0.362363 -0.183196 -0.019695
-0.362363 -0.173196 -0.019695
-0.362363 -0.183196 -0.009695
-0.362363 -0.183196 0.000305
-0.362363 -0.173196 -0.009695
-0.362363 -0.173196 0.000305
-0.362363 -0.163196 -0.029695
-0.362363 -0.163196 -0.019695
-0.362363 -0.153196 -0.029695
-0.362363 -0.153196 -0.019695
-0.372363 -0.163196 0.000305
-0.372363 -0.153196 0.000305
-0.362363 -0.163196 -0.009695
-0.362363 -0.153196 -0.009695
-0.352363 -0.183196 -0.029695
-0.352363 -0.183196 -0.019695
-0.352363 -0.173196 -0.029695
-0.352363 -0.183196 -0.009695
-0.372363 -0.173196 0.010305
-0.372363 -0.173196 0.020305
-0.362363 -0.183196 0.010305
-0.362363 -0.183196 0.020305
-0.362363 -0.173196 0.020305
-0.372363 -0.173196 0.030305
-0.372363 -0.173196 0.040305
-0.362363 -0.183196 0.040305
-0.362363 -0.173196 0.030305
-0.362363 -0.173196 0.040305
-0.372363 -0.163196 0.010305
-0.372363 -0.163196 0.020305
-0.372363 -0.153196 0.010305
-0.372363 -0.163196 0.030305
-0.372363 -0.163196 0.040305
-0.372363 -0.153196 0.030305
-0.332363 -0.223196 -0.029695
-0.332363 -0.223196 -0.019695
-0.332363 -0.213196 -0.029695
-0.362363 -0.193196 0.050305
-0.352363 -0.213196 0.050305
-0.342363 -0.223196 0.050305
-0.342363 -0.213196 0.060305
-0.342363 -0.213196 0.070305
-0.352363 -0.203196 0.050305
-0.352363 -0.203196 0.060305
-0.352363 -0.193196 0.060305
-0.342363 -0.203196 0.060305
-0.352363 -0.193196 0.070305
-0.352363 -0.193196 0.080305
-0.342363 -0.203196 0.070305
-0.342363 -0.203196 0.080305
-0.342363 -0.193196 0.090305
-0.372363 -0.173196 0.050305
-0.362363 -0.183196 0.050305
-0.362363 -0.173196 0.060305
-0.372363 -0.163196 0.050305
-0.372363 -0.153196 0.050305
-0.362363 -0.163196 0.060305
-0.362363 -0.153196 0.060305
-0.362363 -0.163196 0.070305
-0.362363 -0.153196 0.070305
-0.352363 -0.173196 0.060305
-0.352363 -0.183196 0.070305
-0.352363 -0.173196 0.070305
-0.352363 -0.173196 0.080305
-0.342363 -0.183196 0.080305
-0.352363 -0.163196 0.080305
-0.352363 -0.153196 0.080305
-0.342363 -0.183196 0.090305
-0.342363 -0.173196 0.090305
-0.352363 -0.163196 0.090305
-0.352363 -0.153196 0.090305
-0.342363 -0.163196 0.090305
-0.342363 -0.163196 0.100305
-0.342363 -0.153196 0.100305
-0.332363 -0.223196 0.060305
-0.332363 -0.223196 0.070305
-0.332363 -0.213196 0.080305
-0.322363 -0.223196 0.080305
-0.322363 -0.223196 0.090305
-0.322363 -0.213196 0.090305
-0.332363 -0.203196 0.090305
-0.332363 -0.193196 0.090305
-0.332363 -0.193196 0.100305
-0.322363 -0.203196 0.090305
-0.322363 -0.203196 0.100305
-0.322363 -0.193196 0.100305
-0.312363 -0.223196 0.090305
-0.312363 -0.223196 0.100305
-0.312363 -0.213196 0.100305
-0.302363 -0.223196 0.100305
-0.302363 -0.213196 0.110305
-0.312363 -0.203196 0.100305
-0.312363 -0.193196 0.110305
-0.302363 -0.203196 0.110305
-0.302363 -0.193196 0.110305
-0.332363 -0.183196 0.100305
-0.332363 -0.173196 0.100305
-0.322363 -0.183196 0.100305
-0.322363 -0.173196 0.110305
-0.332363 -0.163196 0.100305
-0.332363 -0.153196 0.100305
-0.322363 -0.163196 0.110305
-0.322363 -0.153196 0.110305
-0.312363 -0.183196 0.110305
-0.312363 -0.173196 0.110305
-0.302363 -0.183196 0.110305
-0.302363 -0.173196 0.110305
-0.312363 -0.163196 0.110305
-0.312363 -0.153196 0.110305
-0.302363 -0.163196 0.120305
-0.302363 -0.153196 0.110305
-0.262363 -0.273196 -0.009695
-0.262363 -0.273196 0.000305
-0.282363 -0.273196 0.020305
-0.282363 -0.273196 0.030305
-0.272363 -0.273196 0.010305
-0.272363 -0.273196 0.020305
-0.262363 -0.273196 0.010305
-0.262363 -0.273196 0.020305
-0.272363 -0.273196 0.030305
-0.262363 -0.273196 0.030305
-0.262363 -0.273196 0.040305
-0.292363 -0.253196 -0.029695
-0.292363 -0.253196 -0.019695
-0.282363 -0.263196 -0.019695
-0.282363 -0.253196 -0.029695
-0.292363 -0.263196 -0.009695
-0.292363 -0.263196 0.000305
-0.282363 -0.263196 -0.009695
-0.282363 -0.263196 0.000305
-0.272363 -0.263196 -0.029695
-0.272363 -0.263196 -0.019695
-0.262363 -0.263196 -0.029695
-0.262363 -0.263196 -0.019695
-0.272363 -0.263196 -0.009695
-0.272363 -0.263196 0.000305
-0.292363 -0.263196 0.010305
-0.292363 -0.263196 0.020305
-0.292363 -0.263196 0.030305
-0.292363 -0.263196 0.040305
-0.282363 -0.263196 0.040305
-0.272363 -0.263196 0.040305
-0.242363 -0.273196 -0.019695
-0.252363 -0.273196 -0.009695
-0.252363 -0.273196 0.000305
-0.242363 -0.273196 -0.009695
-0.242363 -0.273196 0.000305
-0.232363 -0.273196 -0.029695
-0.232363 -0.273196 -0.019695
-0.222363 -0.273196 -0.029695
-0.222363 -0.273196 -0.019695
-0.232363 -0.273196 -0.009695
-0.232363 -0.273196 0.000305
-0.222363 -0.273196 -0.009695
-0.222363 -0.273196 0.000305
-0.252363 -0.273196 0.010305
-0.242363 -0.273196 0.010305
-0.242363 -0.273196 0.020305
-0.252363 -0.273196 0.030305
-0.252363 -0.273196 0.040305
-0.242363 -0.273196 0.030305
-0.242363 -0.273196 0.040305
-0.232363 -0.273196 0.010305
-0.232363 -0.273196 0.040305
-0.252363 -0.263196 -0.029695
-0.252363 -0.263196 -0.019695
-0.242363 -0.263196 -0.029695
-0.232363 -0.263196 0.020305
-0.222363 -0.263196 0.010305
-0.222363 -0.263196 0.020305
-0.232363 -0.263196 0.030305
-0.222363 -0.263196 0.030305
-0.222363 -0.263196 0.040305
-0.292363 -0.263196 0.050305
-0.292363 -0.253196 0.060305
-0.282363 -0.263196 0.050305
-0.282363 -0.263196 0.060305
-0.292363 -0.253196 0.070305
-0.292363 -0.253196 0.080305
-0.282363 -0.263196 0.070305
-0.282363 -0.253196 0.070305
-0.282363 -0.253196 0.080305
-0.292363 -0.243196 0.080305
-0.272363 -0.263196 0.060305
-0.262363 -0.263196 0.050305
-0.262363 -0.263196 0.060305
-0.272363 -0.263196 0.070305
-0.272363 -0.263196 0.080305
-0.272363 -0.253196 0.080305
-0.262363 -0.263196 0.070305
-0.262363 -0.263196 0.080305
-0.282363 -0.253196 0.090305
-0.292363 -0.243196 0.090305
-0.282363 -0.243196 0.090305
-0.282363 -0.243196 0.100305
-0.282363 -0.233196 0.100305
-0.272363 -0.253196 0.090305
-0.262363 -0.253196 0.090305
-0.262363 -0.253196 0.100305
-0.272363 -0.243196 0.100305
-0.262363 -0.243196 0.100305
-0.272363 -0.233196 0.110305
-0.262363 -0.243196 0.110305
-0.262363 -0.233196 0.110305
-0.262363 -0.233196 0.120305
-0.252363 -0.273196 0.050305
-0.252363 -0.273196 0.060305
-0.242363 -0.273196 0.050305
-0.242363 -0.273196 0.060305
-0.242363 -0.273196 0.070305
-0.232363 -0.273196 0.050305
-0.232363 -0.273196 0.060305
-0.222363 -0.273196 0.050305
-0.222363 -0.273196 0.060305
-0.232363 -0.273196 0.070305
-0.222363 -0.273196 0.070305
-0.252363 -0.263196 0.070305
-0.252363 -0.263196 0.080305
-0.242363 -0.263196 0.070305
-0.242363 -0.263196 0.080305
-0.232363 -0.263196 0.080305
-0.222363 -0.263196 0.080305
-0.252363 -0.253196 0.090305
-0.252363 -0.253196 0.100305
-0.242363 -0.263196 0.090305
-0.242363 -0.253196 0.090305
-0.242363 -0.253196 0.100305
-0.252363 -0.253196 0.120305
-0.242363 -0.253196 0.120305
-0.252363 -0.243196 0.100305
-0.252363 -0.243196 0.110305
-0.252363 -0.243196 0.120305
-0.242363 -0.243196 0.110305
-0.232363 -0.263196 0.090305
-0.232363 -0.253196 0.090305
-0.232363 -0.253196 0.100305
-0.222363 -0.263196 0.090305
-0.222363 -0.253196 0.090305
-0.222363 -0.253196 0.100305
-0.232363 -0.263196 0.120305
-0.232363 -0.253196 0.120305
-0.222363 -0.263196 0.120305
-0.222363 -0.253196 0.110305
-0.222363 -0.253196 0.120305
-0.232363 -0.243196 0.110305
-0.292363 -0.223196 0.100305
-0.292363 -0.213196 0.110305
-0.282363 -0.223196 0.110305
-0.282363 -0.213196 0.120305
-0.292363 -0.203196 0.110305
-0.292363 -0.193196 0.120305
-0.282363 -0.203196 0.120305
-0.282363 -0.193196 0.120305
-0.272363 -0.223196 0.110305
-0.272363 -0.223196 0.120305
-0.272363 -0.213196 0.120305
-0.292363 -0.183196 0.120305
-0.292363 -0.173196 0.120305
-0.282363 -0.183196 0.120305
-0.282363 -0.173196 0.120305
-0.292363 -0.163196 0.120305
-0.292363 -0.153196 0.120305
-0.282363 -0.163196 0.120305
-0.282363 -0.153196 0.120305
-0.282363 -0.233196 0.160305
-0.262363 -0.253196 0.130305
-0.262363 -0.253196 0.140305
-0.272363 -0.253196 0.150305
-0.272363 -0.253196 0.160305
-0.262363 -0.263196 0.150305
-0.262363 -0.263196 0.160305
-0.272363 -0.243196 0.140305
-0.272363 -0.233196 0.130305
-0.272363 -0.233196 0.140305
-0.262363 -0.243196 0.130305
-0.262363 -0.243196 0.140305
-0.272363 -0.243196 0.160305
-0.272363 -0.233196 0.150305
-0.282363 -0.243196 0.170305
-0.282363 -0.243196 0.180305
-0.282363 -0.233196 0.180305
-0.272363 -0.263196 0.170305
-0.272363 -0.263196 0.180305
-0.272363 -0.253196 0.170305
-0.272363 -0.253196 0.180305
-0.262363 -0.263196 0.170305
-0.262363 -0.263196 0.180305
-0.272363 -0.263196 0.190305
-0.272363 -0.253196 0.190305
-0.272363 -0.253196 0.200305
-0.262363 -0.263196 0.190305
-0.262363 -0.263196 0.200305
-0.262363 -0.253196 0.200305
-0.272363 -0.243196 0.170305
-0.272363 -0.243196 0.190305
-0.272363 -0.243196 0.200305
-0.272363 -0.233196 0.190305
-0.272363 -0.233196 0.200305
-0.252363 -0.273196 0.160305
-0.242363 -0.273196 0.150305
-0.242363 -0.273196 0.160305
-0.232363 -0.273196 0.140305
-0.222363 -0.273196 0.140305
-0.232363 -0.273196 0.150305
-0.232363 -0.273196 0.160305
-0.222363 -0.273196 0.150305
-0.222363 -0.273196 0.160305
-0.252363 -0.273196 0.170305
-0.252363 -0.273196 0.180305
-0.242363 -0.273196 0.170305
-0.242363 -0.273196 0.180305
-0.252363 -0.273196 0.190305
-0.242363 -0.273196 0.190305
-0.232363 -0.273196 0.170305
-0.232363 -0.273196 0.180305
-0.222363 -0.273196 0.170305
-0.222363 -0.273196 0.180305
-0.232363 -0.273196 0.190305
-0.222363 -0.273196 0.190305
-0.252363 -0.263196 0.140305
-0.252363 -0.253196 0.130305
-0.242363 -0.263196 0.130305
-0.242363 -0.263196 0.140305
-0.252363 -0.263196 0.150305
-0.232363 -0.263196 0.130305
-0.222363 -0.263196 0.130305
-0.252363 -0.263196 0.200305
-0.242363 -0.263196 0.200305
-0.232363 -0.263196 0.200305
-0.222363 -0.263196 0.200305
-0.272363 -0.233196 0.210305
-0.262363 -0.243196 0.210305
-0.262363 -0.233196 0.210305
-0.252363 -0.253196 0.210305
-0.242363 -0.253196 0.210305
-0.252363 -0.243196 0.210305
-0.252363 -0.243196 0.220305
-0.252363 -0.233196 0.220305
-0.242363 -0.243196 0.220305
-0.242363 -0.233196 0.220305
-0.232363 -0.253196 0.210305
-0.222363 -0.253196 0.210305
-0.222363 -0.253196 0.220305
-0.232363 -0.243196 0.220305
-0.232363 -0.233196 0.220305
-0.222363 -0.243196 0.220305
-0.222363 -0.233196 0.220305
-0.232363 -0.233196 0.230305
-0.282363 -0.213196 0.130305
-0.282363 -0.213196 0.140305
-0.282363 -0.223196 0.150305
-0.282363 -0.223196 0.160305
-0.282363 -0.213196 0.150305
-0.282363 -0.203196 0.130305
-0.282363 -0.203196 0.140305
-0.282363 -0.193196 0.130305
-0.282363 -0.193196 0.140305
-0.282363 -0.203196 0.150305
-0.282363 -0.203196 0.160305
-0.272363 -0.223196 0.130305
-0.272363 -0.223196 0.140305
-0.272363 -0.213196 0.130305
-0.272363 -0.193196 0.140305
-0.272363 -0.203196 0.150305
-0.272363 -0.203196 0.160305
-0.272363 -0.193196 0.150305
-0.272363 -0.193196 0.160305
-0.282363 -0.223196 0.170305
-0.282363 -0.213196 0.170305
-0.282363 -0.213196 0.180305
-0.282363 -0.223196 0.190305
-0.272363 -0.223196 0.190305
-0.272363 -0.213196 0.190305
-0.272363 -0.213196 0.200305
-0.272363 -0.203196 0.170305
-0.272363 -0.203196 0.180305
-0.272363 -0.193196 0.170305
-0.272363 -0.193196 0.180305
-0.272363 -0.203196 0.190305
-0.272363 -0.203196 0.200305
-0.272363 -0.193196 0.190305
-0.262363 -0.193196 0.190305
-0.262363 -0.193196 0.200305
-0.282363 -0.183196 0.130305
-0.282363 -0.183196 0.140305
-0.282363 -0.173196 0.130305
-0.282363 -0.173196 0.140305
-0.282363 -0.163196 0.130305
-0.282363 -0.163196 0.140305
-0.282363 -0.153196 0.130305
-0.272363 -0.183196 0.140305
-0.272363 -0.173196 0.140305
-0.262363 -0.183196 0.150305
-0.262363 -0.183196 0.160305
-0.262363 -0.173196 0.150305
-0.262363 -0.173196 0.160305
-0.272363 -0.163196 0.140305
-0.272363 -0.153196 0.130305
-0.272363 -0.153196 0.140305
-0.262363 -0.163196 0.140305
-0.262363 -0.153196 0.130305
-0.262363 -0.153196 0.140305
-0.262363 -0.183196 0.170305
-0.262363 -0.183196 0.180305
-0.262363 -0.183196 0.190305
-0.252363 -0.173196 0.150305
-0.252363 -0.173196 0.160305
-0.242363 -0.173196 0.160305
-0.252363 -0.163196 0.140305
-0.252363 -0.153196 0.130305
-0.252363 -0.153196 0.140305
-0.242363 -0.153196 0.130305
-0.242363 -0.153196 0.140305
-0.252363 -0.163196 0.150305
-0.242363 -0.163196 0.150305
-0.242363 -0.163196 0.160305
-0.232363 -0.163196 0.150305
-0.232363 -0.163196 0.160305
-0.232363 -0.153196 0.150305
-0.222363 -0.163196 0.160305
-0.222363 -0.153196 0.150305
-0.222363 -0.153196 0.160305
-0.252363 -0.173196 0.170305
-0.252363 -0.173196 0.180305
-0.242363 -0.173196 0.170305
-0.242363 -0.173196 0.180305
-0.252363 -0.183196 0.190305
-0.252363 -0.183196 0.200305
-0.252363 -0.173196 0.190305
-0.252363 -0.173196 0.200305
-0.242363 -0.173196 0.190305
-0.242363 -0.173196 0.200305
-0.232363 -0.173196 0.190305
-0.232363 -0.173196 0.200305
-0.232363 -0.163196 0.170305
-0.232363 -0.163196 0.180305
-0.222363 -0.163196 0.170305
-0.222363 -0.163196 0.180305
-0.222363 -0.153196 0.170305
-0.222363 -0.163196 0.190305
-0.222363 -0.163196 0.200305
-0.272363 -0.223196 0.210305
-0.272363 -0.213196 0.210305
-0.262363 -0.223196 0.220305
-0.262363 -0.213196 0.210305
-0.262363 -0.213196 0.220305
-0.262363 -0.213196 0.230305
-0.262363 -0.203196 0.210305
-0.262363 -0.203196 0.220305
-0.262363 -0.193196 0.210305
-0.262363 -0.193196 0.220305
-0.262363 -0.203196 0.230305
-0.262363 -0.193196 0.230305
-0.262363 -0.193196 0.240305
-0.262363 -0.183196 0.210305
-0.262363 -0.183196 0.220305
-0.262363 -0.183196 0.230305
-0.262363 -0.183196 0.240305
-0.262363 -0.173196 0.230305
-0.252363 -0.223196 0.220305
-0.242363 -0.223196 0.220305
-0.242363 -0.213196 0.220305
-0.242363 -0.213196 0.230305
-0.252363 -0.203196 0.230305
-0.252363 -0.193196 0.240305
-0.242363 -0.203196 0.230305
-0.242363 -0.193196 0.230305
-0.242363 -0.193196 0.240305
-0.232363 -0.223196 0.220305
-0.232363 -0.213196 0.220305
-0.222363 -0.213196 0.220305
-0.222363 -0.223196 0.230305
-0.232363 -0.203196 0.220305
-0.222363 -0.203196 0.220305
-0.222363 -0.193196 0.220305
-0.232363 -0.203196 0.230305
-0.232363 -0.193196 0.230305
-0.252363 -0.183196 0.210305
-0.252363 -0.173196 0.210305
-0.252363 -0.173196 0.220305
-0.242363 -0.173196 0.210305
-0.252363 -0.183196 0.240305
-0.252363 -0.173196 0.230305
-0.252363 -0.173196 0.240305
-0.242363 -0.183196 0.240305
-0.242363 -0.173196 0.230305
-0.242363 -0.173196 0.240305
-0.242363 -0.163196 0.220305
-0.232363 -0.173196 0.220305
-0.222363 -0.183196 0.220305
-0.222363 -0.173196 0.220305
-0.232363 -0.183196 0.230305
-0.232363 -0.183196 0.240305
-0.232363 -0.173196 0.230305
-0.232363 -0.163196 0.210305
-0.222363 -0.163196 0.210305
-0.222363 -0.163196 0.220305
-0.212363 -0.273196 -0.029695
-0.212363 -0.273196 -0.019695
-0.202363 -0.273196 -0.029695
-0.202363 -0.273196 -0.019695
-0.212363 -0.273196 -0.009695
-0.192363 -0.273196 -0.029695
-0.192363 -0.273196 -0.019695
-0.182363 -0.273196 -0.029695
-0.212363 -0.263196 0.000305
-0.202363 -0.263196 -0.009695
-0.202363 -0.263196 0.000305
-0.182363 -0.263196 -0.019695
-0.192363 -0.263196 -0.009695
-0.182363 -0.263196 -0.009695
-0.182363 -0.263196 0.000305
-0.212363 -0.263196 0.010305
-0.212363 -0.263196 0.020305
-0.202363 -0.263196 0.010305
-0.202363 -0.263196 0.020305
-0.212363 -0.263196 0.030305
-0.212363 -0.263196 0.040305
-0.202363 -0.263196 0.040305
-0.192363 -0.263196 0.020305
-0.182363 -0.263196 0.010305
-0.182363 -0.253196 0.020305
-0.192363 -0.263196 0.030305
-0.192363 -0.263196 0.040305
-0.182363 -0.263196 0.030305
-0.182363 -0.253196 0.030305
-0.172363 -0.273196 -0.029695
-0.162363 -0.273196 -0.029695
