ply
format ascii 1.0
element vertex 1697
property float x
property float y
property float z
end_header
0.381387 -0.186946 0.166555
0.388887 -0.201946 0.166555
0.388887 -0.179446 0.166555
0.396387 -0.179446 0.166555
0.373887 -0.149446 0.159055
0.381387 -0.156946 0.159055
0.388887 -0.171946 0.159055
0.388887 -0.164446 0.159055
0.396387 -0.171946 0.159055
0.396387 -0.164446 0.159055
0.388887 -0.149446 0.159055
0.396387 -0.149446 0.159055
0.373887 -0.141946 0.159055
0.373887 -0.134446 0.151555
0.381387 -0.134446 0.151555
0.381387 -0.134446 0.159055
0.373887 -0.119446 0.144055
0.373887 -0.119446 0.151555
0.388887 -0.141946 0.159055
0.396387 -0.141946 0.159055
0.396387 -0.134446 0.151555
0.388887 -0.119446 0.151555
0.396387 -0.119446 0.151555
0.403887 -0.171946 0.159055
0.411387 -0.171946 0.159055
0.411387 -0.164446 0.159055
0.403887 -0.156946 0.159055
0.403887 -0.149446 0.159055
0.411387 -0.156946 0.159055
0.426387 -0.171946 0.144055
0.418887 -0.171946 0.159055
0.426387 -0.171946 0.151555
0.418887 -0.156946 0.159055
0.418887 -0.149446 0.151555
0.426387 -0.156946 0.151555
0.426387 -0.149446 0.151555
0.403887 -0.141946 0.151555
0.411387 -0.134446 0.151555
0.411387 -0.119446 0.144055
0.403887 -0.119446 0.151555
0.426387 -0.141946 0.144055
0.426387 -0.134446 0.144055
0.418887 -0.141946 0.151555
0.426387 -0.141946 0.151555
0.418887 -0.119446 0.144055
0.426387 -0.119446 0.144055
0.418887 -0.126946 0.151555
0.426387 -0.126946 0.151555
0.373887 -0.171946 0.166555
0.433887 -0.201946 0.106555
0.433887 -0.201946 0.114055
0.433887 -0.194446 0.121555
0.441387 -0.186946 0.114055
0.441387 -0.179446 0.106555
0.441387 -0.179446 0.114055
0.433887 -0.186946 0.121555
0.441387 -0.179446 0.121555
0.433887 -0.186946 0.136555
0.433887 -0.179446 0.136555
0.441387 -0.171946 0.121555
0.441387 -0.164446 0.129055
0.448887 -0.171946 0.106555
0.448887 -0.171946 0.114055
0.448887 -0.164446 0.114055
0.448887 -0.156946 0.106555
0.448887 -0.156946 0.114055
0.456387 -0.149446 0.114055
0.448887 -0.156946 0.121555
0.448887 -0.149446 0.121555
0.433887 -0.171946 0.144055
0.441387 -0.171946 0.136555
0.441387 -0.164446 0.136555
0.433887 -0.156946 0.144055
0.433887 -0.149446 0.144055
0.441387 -0.156946 0.136555
0.441387 -0.149446 0.136555
0.441387 -0.134446 0.129055
0.441387 -0.119446 0.129055
0.456387 -0.141946 0.106555
0.456387 -0.141946 0.114055
0.456387 -0.134446 0.106555
0.456387 -0.134446 0.114055
0.448887 -0.141946 0.121555
0.448887 -0.141946 0.129055
0.448887 -0.134446 0.121555
0.456387 -0.119446 0.114055
0.448887 -0.126946 0.129055
0.448887 -0.119446 0.121555
0.448887 -0.119446 0.129055
0.433887 -0.141946 0.144055
0.433887 -0.134446 0.144055
0.441387 -0.141946 0.136555
0.441387 -0.134446 0.136555
0.433887 -0.119446 0.144055
0.441387 -0.119446 0.136555
0.013887 -0.104446 -0.110945
0.021387 -0.111946 -0.110945
0.013887 -0.089446 -0.118445
0.021387 -0.096946 -0.110945
0.028887 -0.096946 -0.110945
0.021387 -0.111946 -0.103445
0.028887 -0.111946 -0.103445
0.028887 -0.104446 -0.103445
0.036387 -0.111946 -0.095945
0.036387 -0.104446 -0.095945
0.036387 -0.096946 -0.103445
0.036387 -0.089446 -0.103445
0.013887 -0.081946 -0.118445
0.021387 -0.074446 -0.118445
0.021387 -0.066946 -0.118445
0.028887 -0.081946 -0.118445
0.028887 -0.081946 -0.110945
0.028887 -0.074446 -0.118445
0.036387 -0.081946 -0.110945
0.036387 -0.074446 -0.110945
0.028887 -0.066946 -0.118445
0.036387 -0.059446 -0.118445
0.043887 -0.104446 -0.095945
0.043887 -0.111946 -0.088445
0.043887 -0.104446 -0.088445
0.051387 -0.111946 -0.080945
0.051387 -0.104446 -0.080945
0.043887 -0.089446 -0.095945
0.051387 -0.089446 -0.095945
0.051387 -0.096946 -0.088445
0.051387 -0.089446 -0.088445
0.058887 -0.096946 -0.080945
0.058887 -0.089446 -0.080945
0.043887 -0.066946 -0.110945
0.043887 -0.059446 -0.110945
0.043887 -0.081946 -0.103445
0.051387 -0.081946 -0.095945
0.051387 -0.074446 -0.103445
0.051387 -0.074446 -0.095945
0.058887 -0.081946 -0.088445
0.058887 -0.074446 -0.088445
0.066387 -0.081946 -0.088445
0.066387 -0.081946 -0.080945
0.066387 -0.074446 -0.088445
0.066387 -0.074446 -0.080945
0.058887 -0.066946 -0.095945
0.058887 -0.059446 -0.103445
0.066387 -0.059446 -0.095945
0.066387 -0.066946 -0.088445
0.066387 -0.066946 -0.080945
0.066387 -0.059446 -0.088445
0.051387 -0.111946 -0.073445
0.058887 -0.111946 -0.073445
0.058887 -0.104446 -0.073445
0.066387 -0.104446 -0.065945
0.058887 -0.111946 -0.058445
0.058887 -0.111946 -0.050945
0.066387 -0.111946 -0.050945
0.066387 -0.104446 -0.050945
0.066387 -0.096946 -0.073445
0.066387 -0.096946 -0.065945
0.066387 -0.089446 -0.058445
0.066387 -0.111946 -0.043445
0.066387 -0.111946 -0.035945
0.066387 -0.104446 -0.043445
0.066387 -0.111946 -0.020945
0.066387 -0.081946 -0.073445
0.013887 -0.051946 -0.125945
0.013887 -0.044446 -0.125945
0.021387 -0.044446 -0.125945
0.013887 -0.036946 -0.125945
0.021387 -0.029446 -0.125945
0.028887 -0.044446 -0.125945
0.028887 -0.051946 -0.118445
0.036387 -0.051946 -0.118445
0.036387 -0.044446 -0.118445
0.028887 -0.036946 -0.125945
0.028887 -0.029446 -0.125945
0.036387 -0.036946 -0.125945
0.036387 -0.029446 -0.125945
0.013887 -0.021946 -0.125945
0.021387 -0.014446 -0.125945
0.021387 -0.006946 -0.125945
0.021387 0.000554 -0.125945
0.028887 -0.021946 -0.125945
0.028887 -0.014446 -0.125945
0.036387 -0.021946 -0.125945
0.036387 -0.014446 -0.125945
0.028887 -0.006946 -0.125945
0.028887 0.000554 -0.125945
0.036387 -0.006946 -0.125945
0.043887 -0.051946 -0.118445
0.043887 -0.044446 -0.118445
0.051387 -0.051946 -0.110945
0.051387 -0.044446 -0.118445
0.051387 -0.029446 -0.118445
0.058887 -0.051946 -0.110945
0.058887 -0.044446 -0.110945
0.058887 -0.036946 -0.118445
0.058887 -0.036946 -0.110945
0.066387 -0.036946 -0.110945
0.058887 -0.051946 -0.103445
0.066387 -0.051946 -0.095945
0.066387 -0.044446 -0.103445
0.066387 -0.036946 -0.103445
0.043887 -0.014446 -0.125945
0.051387 -0.014446 -0.125945
0.051387 -0.021946 -0.118445
0.051387 -0.006946 -0.125945
0.058887 -0.021946 -0.118445
0.058887 -0.014446 -0.118445
0.066387 -0.021946 -0.118445
0.066387 -0.021946 -0.110945
0.066387 -0.014446 -0.118445
0.066387 -0.014446 -0.110945
0.058887 -0.006946 -0.125945
0.058887 0.000554 -0.125945
0.066387 -0.006946 -0.118445
0.073887 -0.066946 -0.080945
0.073887 -0.059446 -0.080945
0.126387 -0.111946 -0.088445
0.126387 -0.111946 -0.080945
0.126387 -0.104446 -0.080945
0.073887 -0.089446 -0.065945
0.073887 -0.096946 -0.050945
0.073887 -0.089446 -0.050945
0.073887 -0.104446 -0.028445
0.073887 -0.104446 -0.020945
0.073887 -0.096946 -0.043445
0.073887 -0.089446 -0.035945
0.073887 -0.096946 -0.028445
0.073887 -0.089446 -0.020945
0.073887 -0.081946 -0.065945
0.073887 -0.074446 -0.073445
0.081387 -0.074446 -0.065945
0.073887 -0.081946 -0.058445
0.073887 -0.081946 -0.050945
0.081387 -0.074446 -0.050945
0.081387 -0.066946 -0.065945
0.081387 -0.059446 -0.073445
0.081387 -0.066946 -0.058445
0.081387 -0.059446 -0.058445
0.088887 -0.059446 -0.050945
0.081387 -0.081946 -0.043445
0.081387 -0.074446 -0.043445
0.081387 -0.074446 -0.035945
0.081387 -0.081946 -0.028445
0.081387 -0.081946 -0.020945
0.081387 -0.074446 -0.028445
0.081387 -0.074446 -0.020945
0.088887 -0.059446 -0.043445
0.088887 -0.059446 -0.028445
0.088887 -0.059446 -0.020945
0.126387 -0.111946 -0.073445
0.126387 -0.104446 -0.073445
0.118887 -0.111946 -0.058445
0.118887 -0.111946 -0.050945
0.118887 -0.104446 -0.050945
0.126387 -0.104446 -0.058445
0.126387 -0.096946 -0.065945
0.126387 -0.089446 -0.073445
0.126387 -0.096946 -0.058445
0.126387 -0.089446 -0.050945
0.118887 -0.111946 -0.043445
0.118887 -0.104446 -0.035945
0.118887 -0.111946 -0.028445
0.126387 -0.111946 -0.020945
0.126387 -0.104446 -0.020945
0.118887 -0.096946 -0.043445
0.126387 -0.096946 -0.035945
0.126387 -0.089446 -0.043445
0.118887 -0.096946 -0.028445
0.126387 -0.096946 -0.020945
0.126387 -0.081946 -0.058445
0.126387 -0.081946 -0.050945
0.126387 -0.081946 -0.043445
0.126387 -0.081946 -0.035945
0.073887 -0.044446 -0.095945
0.073887 -0.051946 -0.088445
0.073887 -0.044446 -0.088445
0.081387 -0.044446 -0.080945
0.073887 -0.036946 -0.095945
0.073887 -0.029446 -0.095945
0.081387 -0.029446 -0.095945
0.081387 -0.036946 -0.088445
0.088887 -0.036946 -0.080945
0.088887 -0.029446 -0.080945
0.073887 -0.006946 -0.110945
0.073887 0.000554 -0.118445
0.073887 -0.021946 -0.103445
0.073887 -0.014446 -0.103445
0.081387 -0.014446 -0.103445
0.081387 -0.014446 -0.095945
0.081387 0.000554 -0.103445
0.088887 -0.021946 -0.088445
0.088887 -0.014446 -0.088445
0.096387 -0.021946 -0.080945
0.096387 -0.014446 -0.080945
0.088887 -0.006946 -0.095945
0.088887 0.000554 -0.103445
0.096387 -0.006946 -0.088445
0.096387 -0.006946 -0.080945
0.096387 0.000554 -0.088445
0.103887 -0.006946 -0.080945
0.081387 -0.051946 -0.073445
0.088887 -0.044446 -0.073445
0.088887 -0.051946 -0.058445
0.088887 -0.051946 -0.050945
0.088887 -0.044446 -0.058445
0.088887 -0.044446 -0.050945
0.088887 -0.036946 -0.073445
0.088887 -0.036946 -0.065945
0.088887 -0.029446 -0.073445
0.096387 -0.036946 -0.058445
0.096387 -0.036946 -0.050945
0.096387 -0.029446 -0.050945
0.088887 -0.051946 -0.043445
0.088887 -0.044446 -0.043445
0.088887 -0.051946 -0.028445
0.088887 -0.051946 -0.020945
0.088887 -0.044446 -0.020945
0.096387 -0.044446 -0.028445
0.096387 -0.036946 -0.043445
0.096387 -0.029446 -0.043445
0.088887 -0.036946 -0.020945
0.096387 -0.036946 -0.020945
0.096387 -0.029446 -0.028445
0.096387 -0.021946 -0.073445
0.096387 -0.014446 -0.073445
0.096387 -0.021946 -0.058445
0.096387 -0.021946 -0.028445
0.096387 -0.021946 -0.020945
0.096387 -0.014446 -0.020945
0.103887 -0.014446 -0.065945
0.103887 -0.021946 -0.058445
0.103887 -0.021946 -0.050945
0.103887 -0.014446 -0.058445
0.103887 -0.014446 -0.050945
0.103887 -0.006946 -0.073445
0.103887 -0.006946 -0.065945
0.111387 0.000554 -0.073445
0.103887 -0.006946 -0.050945
0.111387 0.000554 -0.058445
0.111387 0.000554 -0.050945
0.103887 -0.021946 -0.043445
0.103887 -0.021946 -0.035945
0.103887 -0.014446 -0.043445
0.103887 -0.014446 -0.028445
0.103887 -0.014446 -0.020945
0.103887 -0.006946 -0.043445
0.111387 0.000554 -0.043445
0.103887 -0.006946 -0.028445
0.103887 -0.006946 -0.020945
0.103887 0.000554 -0.020945
0.058887 -0.111946 -0.005945
0.066387 -0.111946 -0.013445
0.066387 -0.111946 -0.005945
0.066387 -0.104446 -0.013445
0.066387 -0.104446 -0.005945
0.058887 -0.111946 0.001555
0.058887 -0.111946 0.009055
0.058887 -0.104446 0.009055
0.066387 -0.104446 0.009055
0.066387 -0.096946 0.009055
0.066387 -0.089446 0.009055
0.051387 -0.111946 0.016555
0.051387 -0.111946 0.024055
0.051387 -0.104446 0.024055
0.043887 -0.111946 0.031555
0.043887 -0.111946 0.039055
0.043887 -0.104446 0.039055
0.051387 -0.111946 0.031555
0.051387 -0.104446 0.031555
0.051387 -0.089446 0.024055
0.043887 -0.096946 0.031555
0.043887 -0.096946 0.039055
0.043887 -0.089446 0.039055
0.051387 -0.096946 0.031555
0.058887 -0.104446 0.016555
0.058887 -0.089446 0.016555
0.066387 -0.096946 0.016555
0.066387 -0.081946 0.009055
0.043887 -0.074446 0.039055
0.051387 -0.081946 0.031555
0.051387 -0.081946 0.039055
0.051387 -0.074446 0.031555
0.051387 -0.074446 0.039055
0.043887 -0.066946 0.039055
0.051387 -0.059446 0.031555
0.051387 -0.059446 0.039055
0.058887 -0.081946 0.024055
0.058887 -0.074446 0.024055
0.066387 -0.081946 0.016555
0.066387 -0.074446 0.016555
0.058887 -0.066946 0.024055
0.066387 -0.059446 0.016555
0.066387 -0.059446 0.024055
0.013887 -0.111946 0.061555
0.013887 -0.104446 0.061555
0.021387 -0.111946 0.061555
0.021387 -0.104446 0.061555
0.021387 -0.089446 0.054055
0.013887 -0.096946 0.061555
0.028887 -0.111946 0.046555
0.028887 -0.111946 0.054055
0.028887 -0.104446 0.054055
0.036387 -0.111946 0.046555
0.036387 -0.104446 0.046555
0.028887 -0.096946 0.054055
0.036387 -0.089446 0.046555
0.036387 -0.089446 0.054055
0.013887 -0.081946 0.061555
0.013887 -0.074446 0.061555
0.021387 -0.081946 0.061555
0.021387 -0.074446 0.061555
0.021387 -0.066946 0.054055
0.013887 -0.059446 0.061555
0.028887 -0.081946 0.054055
0.028887 -0.074446 0.054055
0.036387 -0.081946 0.054055
0.036387 -0.074446 0.054055
0.028887 -0.059446 0.054055
0.036387 -0.059446 0.054055
0.043887 -0.081946 0.046555
0.043887 -0.074446 0.046555
0.043887 -0.059446 0.046555
0.051387 -0.044446 0.039055
0.051387 -0.036946 0.039055
0.066387 -0.051946 0.016555
0.066387 -0.051946 0.024055
0.066387 -0.044446 0.024055
0.058887 -0.051946 0.031555
0.058887 -0.051946 0.039055
0.058887 -0.044446 0.031555
0.058887 -0.044446 0.039055
0.058887 -0.036946 0.039055
0.058887 -0.029446 0.039055
0.066387 -0.036946 0.031555
0.051387 -0.021946 0.039055
0.066387 -0.021946 0.024055
0.058887 -0.014446 0.039055
0.066387 -0.021946 0.031555
0.066387 -0.014446 0.031555
0.058887 -0.006946 0.039055
0.058887 0.000554 0.039055
0.066387 -0.006946 0.031555
0.066387 0.000554 0.039055
0.013887 -0.044446 0.054055
0.021387 -0.051946 0.054055
0.021387 -0.036946 0.054055
0.028887 -0.051946 0.054055
0.028887 -0.044446 0.054055
0.036387 -0.051946 0.054055
0.036387 -0.044446 0.046555
0.036387 -0.044446 0.054055
0.028887 -0.036946 0.054055
0.028887 -0.029446 0.046555
0.028887 -0.029446 0.054055
0.036387 -0.036946 0.046555
0.036387 -0.036946 0.054055
0.013887 -0.014446 0.054055
0.021387 -0.021946 0.054055
0.021387 -0.006946 0.054055
0.021387 0.000554 0.046555
0.028887 -0.021946 0.046555
0.028887 -0.014446 0.054055
0.036387 -0.021946 0.046555
0.036387 -0.014446 0.046555
0.028887 -0.006946 0.054055
0.028887 0.000554 0.054055
0.036387 -0.006946 0.046555
0.036387 0.000554 0.046555
0.036387 0.000554 0.054055
0.043887 -0.051946 0.046555
0.043887 -0.044446 0.046555
0.051387 -0.036946 0.046555
0.043887 -0.021946 0.046555
0.051387 -0.014446 0.046555
0.043887 -0.006946 0.046555
0.043887 0.000554 0.046555
0.073887 -0.096946 -0.013445
0.073887 -0.096946 -0.005945
0.073887 -0.089446 -0.005945
0.073887 -0.081946 -0.013445
0.073887 -0.081946 -0.005945
0.073887 -0.074446 -0.005945
0.081387 -0.074446 -0.013445
0.073887 -0.074446 0.009055
0.081387 -0.066946 -0.013445
0.081387 -0.066946 -0.005945
0.081387 -0.059446 -0.013445
0.081387 -0.059446 -0.005945
0.073887 -0.066946 0.009055
0.073887 -0.059446 0.009055
0.126387 -0.111946 -0.013445
0.126387 -0.104446 -0.013445
0.081387 -0.051946 -0.005945
0.073887 -0.051946 0.009055
0.081387 -0.051946 0.001555
0.081387 -0.044446 0.001555
0.081387 -0.044446 0.009055
0.081387 -0.036946 0.009055
0.081387 -0.029446 0.009055
0.088887 -0.051946 -0.013445
0.088887 -0.044446 -0.013445
0.088887 -0.044446 -0.005945
0.088887 -0.036946 -0.013445
0.088887 -0.036946 -0.005945
0.088887 -0.029446 0.001555
0.073887 -0.051946 0.016555
0.073887 -0.044446 0.016555
0.073887 -0.036946 0.016555
0.073887 -0.036946 0.024055
0.081387 -0.021946 0.009055
0.088887 -0.021946 -0.005945
0.096387 -0.021946 -0.013445
0.096387 -0.014446 -0.013445
0.096387 -0.014446 -0.005945
0.088887 -0.021946 0.001555
0.088887 -0.014446 0.009055
0.096387 -0.006946 -0.013445
0.096387 -0.006946 -0.005945
0.096387 0.000554 -0.005945
0.088887 -0.006946 0.001555
0.088887 -0.006946 0.009055
0.088887 0.000554 0.009055
0.073887 -0.021946 0.024055
0.073887 -0.014446 0.024055
0.081387 -0.021946 0.016555
0.081387 -0.014446 0.016555
0.073887 -0.014446 0.031555
0.081387 -0.006946 0.016555
0.081387 0.000554 0.024055
0.073887 -0.006946 0.031555
0.088887 0.000554 0.016555
0.103887 0.000554 -0.013445
0.013887 0.015554 -0.125945
0.021387 0.015554 -0.125945
0.013887 0.023054 -0.125945
0.013887 0.030554 -0.125945
0.021387 0.030554 -0.125945
0.028887 0.015554 -0.125945
0.036387 0.008054 -0.125945
0.036387 0.015554 -0.125945
0.028887 0.023054 -0.125945
0.028887 0.030554 -0.125945
0.036387 0.023054 -0.125945
0.013887 0.045554 -0.125945
0.021387 0.038054 -0.125945
0.021387 0.053054 -0.125945
0.021387 0.060554 -0.118445
0.028887 0.045554 -0.125945
0.036387 0.038054 -0.125945
0.036387 0.045554 -0.125945
0.028887 0.053054 -0.125945
0.028887 0.060554 -0.125945
0.036387 0.053054 -0.125945
0.036387 0.060554 -0.125945
0.043887 0.008054 -0.125945
0.051387 0.015554 -0.125945
0.043887 0.023054 -0.125945
0.058887 0.008054 -0.125945
0.058887 0.015554 -0.125945
0.066387 0.015554 -0.125945
0.066387 0.008054 -0.118445
0.058887 0.023054 -0.125945
0.058887 0.030554 -0.125945
0.066387 0.023054 -0.125945
0.066387 0.030554 -0.125945
0.043887 0.038054 -0.125945
0.051387 0.045554 -0.125945
0.051387 0.053054 -0.125945
0.051387 0.060554 -0.125945
0.058887 0.045554 -0.125945
0.066387 0.045554 -0.125945
0.058887 0.053054 -0.133445
0.058887 0.060554 -0.125945
0.066387 0.053054 -0.125945
0.066387 0.060554 -0.125945
0.013887 0.068054 -0.118445
0.013887 0.083054 -0.110945
0.013887 0.090554 -0.110945
0.021387 0.083054 -0.118445
0.021387 0.090554 -0.118445
0.028887 0.068054 -0.125945
0.036387 0.075554 -0.125945
0.036387 0.083054 -0.125945
0.028887 0.083054 -0.118445
0.028887 0.090554 -0.118445
0.036387 0.090554 -0.118445
0.021387 0.105554 -0.110945
0.021387 0.113054 -0.110945
0.028887 0.105554 -0.118445
0.036387 0.105554 -0.118445
0.028887 0.113054 -0.118445
0.028887 0.113054 -0.110945
0.028887 0.120554 -0.110945
0.036387 0.113054 -0.118445
0.036387 0.120554 -0.118445
0.036387 0.120554 -0.110945
0.013887 0.105554 -0.095945
0.013887 0.113054 -0.103445
0.013887 0.120554 -0.095945
0.021387 0.120554 -0.103445
0.013887 0.120554 -0.088445
0.043887 0.068054 -0.125945
0.051387 0.068054 -0.125945
0.043887 0.083054 -0.125945
0.043887 0.090554 -0.125945
0.051387 0.083054 -0.125945
0.051387 0.090554 -0.125945
0.058887 0.068054 -0.125945
0.066387 0.075554 -0.125945
0.058887 0.083054 -0.125945
0.058887 0.090554 -0.125945
0.066387 0.083054 -0.133445
0.066387 0.090554 -0.125945
0.043887 0.098054 -0.125945
0.051387 0.105554 -0.125945
0.043887 0.113054 -0.125945
0.051387 0.120554 -0.118445
0.058887 0.098054 -0.125945
0.066387 0.098054 -0.125945
0.058887 0.113054 -0.125945
0.058887 0.120554 -0.125945
0.066387 0.113054 -0.125945
0.066387 0.120554 -0.125945
0.081387 0.008054 -0.110945
0.081387 0.015554 -0.118445
0.073887 0.030554 -0.125945
0.081387 0.023054 -0.125945
0.081387 0.030554 -0.125945
0.088887 0.015554 -0.110945
0.096387 0.015554 -0.110945
0.088887 0.023054 -0.118445
0.088887 0.023054 -0.110945
0.088887 0.030554 -0.118445
0.096387 0.023054 -0.110945
0.096387 0.030554 -0.110945
0.096387 0.008054 -0.095945
0.096387 0.015554 -0.103445
0.096387 0.023054 -0.103445
0.073887 0.045554 -0.125945
0.081387 0.045554 -0.125945
0.073887 0.053054 -0.125945
0.081387 0.060554 -0.125945
0.088887 0.045554 -0.125945
0.096387 0.038054 -0.118445
0.096387 0.045554 -0.118445
0.088887 0.053054 -0.125945
0.088887 0.060554 -0.125945
0.096387 0.053054 -0.125945
0.096387 0.060554 -0.125945
0.103887 0.015554 -0.095945
0.103887 0.008054 -0.088445
0.103887 0.008054 -0.080945
0.103887 0.015554 -0.088445
0.111387 0.015554 -0.080945
0.103887 0.023054 -0.095945
0.111387 0.023054 -0.095945
0.111387 0.030554 -0.103445
0.111387 0.030554 -0.095945
0.111387 0.023054 -0.088445
0.118887 0.023054 -0.080945
0.118887 0.030554 -0.088445
0.118887 0.030554 -0.080945
0.103887 0.038054 -0.110945
0.103887 0.045554 -0.110945
0.103887 0.053054 -0.118445
0.103887 0.060554 -0.118445
0.111387 0.053054 -0.110945
0.118887 0.060554 -0.110945
0.126387 0.060554 -0.110945
0.111387 0.038054 -0.103445
0.118887 0.038054 -0.095945
0.118887 0.045554 -0.103445
0.118887 0.045554 -0.095945
0.118887 0.038054 -0.088445
0.126387 0.038054 -0.080945
0.126387 0.045554 -0.088445
0.126387 0.045554 -0.080945
0.118887 0.053054 -0.103445
0.126387 0.053054 -0.095945
0.126387 0.060554 -0.103445
0.111387 0.008054 -0.065945
0.111387 0.015554 -0.073445
0.111387 0.008054 -0.058445
0.111387 0.008054 -0.050945
0.111387 0.015554 -0.058445
0.118887 0.015554 -0.050945
0.118887 0.023054 -0.073445
0.118887 0.030554 -0.073445
0.126387 0.030554 -0.073445
0.126387 0.030554 -0.065945
0.118887 0.023054 -0.058445
0.118887 0.023054 -0.050945
0.126387 0.030554 -0.050945
0.111387 0.008054 -0.043445
0.111387 0.008054 -0.035945
0.111387 0.015554 -0.043445
0.111387 0.008054 -0.028445
0.111387 0.015554 -0.028445
0.111387 0.015554 -0.020945
0.111387 0.023054 -0.020945
0.118887 0.023054 -0.043445
0.118887 0.030554 -0.043445
0.126387 0.030554 -0.043445
0.118887 0.023054 -0.028445
0.118887 0.030554 -0.028445
0.118887 0.030554 -0.020945
0.126387 0.038054 -0.073445
0.126387 0.038054 -0.050945
0.118887 0.038054 -0.035945
0.126387 0.038054 -0.043445
0.118887 0.038054 -0.028445
0.118887 0.038054 -0.020945
0.126387 0.045554 -0.028445
0.126387 0.045554 -0.020945
0.126387 0.053054 -0.020945
0.073887 0.068054 -0.125945
0.073887 0.083054 -0.133445
0.073887 0.090554 -0.133445
0.081387 0.083054 -0.133445
0.088887 0.075554 -0.125945
0.096387 0.068054 -0.125945
0.088887 0.090554 -0.133445
0.096387 0.083054 -0.125945
0.096387 0.090554 -0.125945
0.073887 0.105554 -0.133445
0.073887 0.113054 -0.133445
0.073887 0.120554 -0.125945
0.088887 0.098054 -0.133445
0.096387 0.098054 -0.133445
0.088887 0.113054 -0.133445
0.088887 0.120554 -0.133445
0.096387 0.113054 -0.133445
0.096387 0.120554 -0.133445
0.103887 0.068054 -0.125945
0.103887 0.075554 -0.125945
0.111387 0.068054 -0.118445
0.111387 0.075554 -0.118445
0.103887 0.083054 -0.125945
0.103887 0.090554 -0.125945
0.111387 0.083054 -0.125945
0.126387 0.068054 -0.110945
0.126387 0.075554 -0.118445
0.118887 0.083054 -0.125945
0.118887 0.090554 -0.125945
0.126387 0.090554 -0.125945
0.126387 0.083054 -0.118445
0.103887 0.105554 -0.133445
0.103887 0.113054 -0.133445
0.103887 0.120554 -0.133445
0.111387 0.113054 -0.133445
0.111387 0.120554 -0.133445
0.118887 0.098054 -0.125945
0.126387 0.098054 -0.125945
0.126387 0.113054 -0.125945
0.126387 0.120554 -0.133445
0.013887 0.038054 0.039055
0.013887 0.045554 0.039055
0.013887 0.053054 0.039055
0.021387 0.053054 0.039055
0.021387 0.060554 0.039055
0.036387 0.045554 0.039055
0.028887 0.053054 0.039055
0.028887 0.060554 0.039055
0.036387 0.053054 0.039055
0.036387 0.060554 0.039055
0.058887 0.008054 0.039055
0.058887 0.015554 0.039055
0.066387 0.015554 0.039055
0.058887 0.023054 0.039055
0.058887 0.030554 0.039055
0.066387 0.023054 0.039055
0.066387 0.030554 0.039055
0.051387 0.045554 0.039055
0.043887 0.053054 0.039055
0.043887 0.060554 0.039055
0.051387 0.053054 0.039055
0.058887 0.045554 0.039055
0.066387 0.045554 0.039055
0.058887 0.053054 0.039055
0.058887 0.060554 0.039055
0.066387 0.053054 0.039055
0.066387 0.060554 0.039055
0.021387 0.015554 0.046555
0.013887 0.023054 0.046555
0.028887 0.008054 0.046555
0.028887 0.015554 0.046555
0.036387 0.015554 0.046555
0.028887 0.023054 0.046555
0.028887 0.030554 0.046555
0.036387 0.023054 0.046555
0.036387 0.030554 0.046555
0.021387 0.038054 0.046555
0.028887 0.045554 0.046555
0.043887 0.015554 0.046555
0.043887 0.023054 0.046555
0.051387 0.038054 0.046555
0.021387 0.068054 0.031555
0.013887 0.090554 0.024055
0.021387 0.090554 0.024055
0.013887 0.083054 0.031555
0.021387 0.083054 0.031555
0.021387 0.090554 0.031555
0.028887 0.075554 0.031555
0.036387 0.068054 0.039055
0.028887 0.083054 0.031555
0.028887 0.090554 0.031555
0.036387 0.083054 0.039055
0.036387 0.090554 0.031555
0.013887 0.120554 0.001555
0.013887 0.120554 0.009055
0.021387 0.105554 0.024055
0.013887 0.113054 0.016555
0.021387 0.113054 0.024055
0.021387 0.120554 0.016555
0.028887 0.098054 0.031555
0.028887 0.105554 0.031555
0.036387 0.098054 0.031555
0.028887 0.113054 0.024055
0.028887 0.120554 0.016555
0.028887 0.120554 0.024055
0.036387 0.113054 0.024055
0.036387 0.120554 0.024055
0.043887 0.075554 0.039055
0.051387 0.068054 0.039055
0.043887 0.083054 0.039055
0.051387 0.090554 0.031555
0.058887 0.075554 0.039055
0.066387 0.068054 0.039055
0.058887 0.083054 0.039055
0.058887 0.090554 0.039055
0.066387 0.083054 0.039055
0.066387 0.090554 0.039055
0.043887 0.105554 0.031555
0.051387 0.105554 0.031555
0.043887 0.113054 0.031555
0.043887 0.120554 0.031555
0.051387 0.113054 0.031555
0.058887 0.098054 0.031555
0.066387 0.105554 0.031555
0.058887 0.113054 0.031555
0.058887 0.120554 0.031555
0.066387 0.113054 0.031555
0.066387 0.120554 0.031555
0.088887 0.008054 0.009055
0.096387 0.008054 0.001555
0.096387 0.015554 0.009055
0.096387 0.023054 0.009055
0.096387 0.030554 0.009055
0.073887 0.008054 0.024055
0.081387 0.008054 0.024055
0.081387 0.015554 0.024055
0.073887 0.008054 0.031555
0.073887 0.015554 0.031555
0.081387 0.023054 0.024055
0.073887 0.023054 0.031555
0.073887 0.030554 0.031555
0.081387 0.023054 0.031555
0.081387 0.030554 0.031555
0.088887 0.015554 0.016555
0.088887 0.023054 0.016555
0.088887 0.030554 0.024055
0.096387 0.023054 0.016555
0.096387 0.030554 0.016555
0.073887 0.045554 0.031555
0.081387 0.038054 0.031555
0.073887 0.053054 0.031555
0.073887 0.060554 0.039055
0.081387 0.053054 0.031555
0.081387 0.060554 0.031555
0.088887 0.038054 0.024055
0.088887 0.045554 0.024055
0.096387 0.045554 0.016555
0.096387 0.053054 0.024055
0.096387 0.060554 0.024055
0.088887 0.053054 0.031555
0.088887 0.060554 0.031555
0.103887 0.008054 -0.013445
0.103887 0.008054 -0.005945
0.103887 0.015554 -0.013445
0.103887 0.015554 -0.005945
0.103887 0.023054 -0.005945
0.111387 0.023054 -0.013445
0.111387 0.030554 -0.013445
0.103887 0.030554 0.001555
0.111387 0.038054 -0.005945
0.111387 0.045554 -0.005945
0.103887 0.038054 0.001555
0.103887 0.045554 0.009055
0.111387 0.045554 0.001555
0.111387 0.053054 0.001555
0.111387 0.053054 0.009055
0.111387 0.060554 0.009055
0.118887 0.045554 -0.013445
0.118887 0.053054 -0.005945
0.126387 0.053054 -0.013445
0.126387 0.060554 -0.013445
0.126387 0.060554 -0.005945
0.118887 0.060554 0.001555
0.103887 0.053054 0.016555
0.103887 0.060554 0.016555
0.073887 0.068054 0.039055
0.073887 0.083054 0.031555
0.073887 0.090554 0.031555
0.088887 0.068054 0.031555
0.096387 0.068054 0.031555
0.096387 0.075554 0.031555
0.088887 0.083054 0.031555
0.088887 0.090554 0.031555
0.096387 0.083054 0.031555
0.096387 0.090554 0.031555
0.073887 0.098054 0.031555
0.073887 0.113054 0.031555
0.073887 0.120554 0.031555
0.081387 0.120554 0.031555
0.088887 0.098054 0.031555
0.096387 0.105554 0.031555
0.088887 0.113054 0.031555
0.088887 0.120554 0.031555
0.096387 0.113054 0.031555
0.096387 0.120554 0.031555
0.118887 0.068054 0.001555
0.118887 0.068054 0.009055
0.126387 0.068054 0.001555
0.126387 0.075554 0.009055
0.126387 0.083054 0.009055
0.126387 0.090554 0.009055
0.103887 0.075554 0.024055
0.111387 0.075554 0.016555
0.103887 0.083054 0.024055
0.103887 0.090554 0.024055
0.111387 0.083054 0.016555
0.111387 0.090554 0.024055
0.118887 0.083054 0.016555
0.118887 0.090554 0.024055
0.126387 0.090554 0.016555
0.111387 0.098054 0.024055
0.103887 0.105554 0.031555
0.103887 0.113054 0.031555
0.103887 0.120554 0.031555
0.111387 0.120554 0.031555
0.118887 0.098054 0.024055
0.126387 0.098054 0.024055
0.126387 0.113054 0.024055
0.118887 0.113054 0.031555
0.126387 0.120554 0.031555
0.141387 -0.111946 -0.110945
0.148887 -0.111946 -0.110945
0.148887 -0.104446 -0.110945
0.156387 -0.111946 -0.118445
0.156387 -0.104446 -0.118445
0.148887 -0.096946 -0.110945
0.148887 -0.089446 -0.110945
0.156387 -0.096946 -0.118445
0.133887 -0.111946 -0.103445
0.141387 -0.111946 -0.103445
0.141387 -0.104446 -0.103445
0.141387 -0.104446 -0.095945
0.133887 -0.111946 -0.088445
0.133887 -0.104446 -0.088445
0.133887 -0.104446 -0.080945
0.141387 -0.096946 -0.095945
0.141387 -0.089446 -0.103445
0.133887 -0.096946 -0.088445
0.133887 -0.089446 -0.088445
0.133887 -0.089446 -0.080945
0.156387 -0.081946 -0.110945
0.156387 -0.074446 -0.110945
0.141387 -0.081946 -0.095945
0.133887 -0.081946 -0.080945
0.141387 -0.081946 -0.088445
0.141387 -0.074446 -0.088445
0.141387 -0.074446 -0.080945
0.148887 -0.081946 -0.103445
0.148887 -0.074446 -0.103445
0.156387 -0.059446 -0.095945
0.148887 -0.066946 -0.088445
0.148887 -0.066946 -0.080945
0.148887 -0.059446 -0.088445
0.163887 -0.111946 -0.125945
0.171387 -0.111946 -0.125945
0.171387 -0.104446 -0.125945
0.163887 -0.104446 -0.118445
0.171387 -0.096946 -0.125945
0.171387 -0.089446 -0.125945
0.163887 -0.096946 -0.118445
0.186387 -0.111946 -0.125945
0.186387 -0.104446 -0.125945
0.178887 -0.089446 -0.125945
0.186387 -0.096946 -0.125945
0.163887 -0.081946 -0.118445
0.163887 -0.081946 -0.110945
0.163887 -0.074446 -0.118445
0.163887 -0.074446 -0.110945
0.171387 -0.081946 -0.118445
0.171387 -0.074446 -0.118445
0.163887 -0.066946 -0.110945
0.171387 -0.059446 -0.110945
0.178887 -0.081946 -0.125945
0.178887 -0.074446 -0.125945
0.186387 -0.081946 -0.125945
0.186387 -0.074446 -0.125945
0.178887 -0.066946 -0.118445
0.186387 -0.059446 -0.118445
0.163887 -0.059446 -0.103445
0.133887 -0.089446 -0.020945
0.133887 -0.081946 -0.073445
0.133887 -0.074446 -0.073445
0.141387 -0.074446 -0.073445
0.133887 -0.081946 -0.058445
0.133887 -0.074446 -0.058445
0.133887 -0.074446 -0.050945
0.141387 -0.066946 -0.073445
0.141387 -0.059446 -0.073445
0.133887 -0.066946 -0.050945
0.141387 -0.066946 -0.058445
0.141387 -0.059446 -0.058445
0.141387 -0.059446 -0.050945
0.148887 -0.059446 -0.073445
0.133887 -0.081946 -0.035945
0.133887 -0.074446 -0.043445
0.133887 -0.074446 -0.035945
0.133887 -0.081946 -0.028445
0.133887 -0.081946 -0.020945
0.133887 -0.074446 -0.028445
0.141387 -0.081946 -0.020945
0.141387 -0.074446 -0.020945
0.141387 -0.066946 -0.043445
0.141387 -0.059446 -0.035945
0.141387 -0.059446 -0.028445
0.148887 -0.059446 -0.035945
0.148887 -0.066946 -0.020945
0.148887 -0.059446 -0.020945
0.156387 -0.051946 -0.088445
0.156387 -0.051946 -0.080945
0.156387 -0.044446 -0.080945
0.171387 -0.051946 -0.110945
0.171387 -0.044446 -0.110945
0.178887 -0.051946 -0.118445
0.178887 -0.051946 -0.110945
0.178887 -0.044446 -0.110945
0.186387 -0.036946 -0.110945
0.163887 -0.051946 -0.103445
0.163887 -0.051946 -0.095945
0.163887 -0.044446 -0.095945
0.171387 -0.044446 -0.103445
0.163887 -0.044446 -0.088445
0.163887 -0.044446 -0.080945
0.171387 -0.036946 -0.095945
0.163887 -0.036946 -0.080945
0.171387 -0.036946 -0.088445
0.171387 -0.029446 -0.080945
0.178887 -0.029446 -0.103445
0.178887 -0.029446 -0.095945
0.186387 -0.029446 -0.103445
0.178887 -0.029446 -0.088445
0.171387 -0.021946 -0.080945
0.186387 -0.021946 -0.103445
0.186387 -0.021946 -0.095945
0.186387 -0.014446 -0.095945
0.178887 -0.021946 -0.088445
0.178887 -0.021946 -0.080945
0.178887 -0.014446 -0.080945
0.186387 -0.014446 -0.088445
0.186387 -0.006946 -0.095945
0.186387 -0.006946 -0.088445
0.186387 -0.006946 -0.080945
0.141387 -0.051946 -0.050945
0.148887 -0.051946 -0.073445
0.148887 -0.051946 -0.065945
0.156387 -0.044446 -0.073445
0.148887 -0.044446 -0.050945
0.156387 -0.044446 -0.058445
0.156387 -0.036946 -0.058445
0.156387 -0.036946 -0.050945
0.141387 -0.051946 -0.043445
0.148887 -0.044446 -0.043445
0.148887 -0.051946 -0.028445
0.156387 -0.051946 -0.020945
0.156387 -0.044446 -0.028445
0.156387 -0.044446 -0.020945
0.156387 -0.036946 -0.043445
0.156387 -0.029446 -0.043445
0.163887 -0.036946 -0.073445
0.163887 -0.029446 -0.065945
0.163887 -0.029446 -0.058445
0.163887 -0.044446 -0.020945
0.163887 -0.036946 -0.028445
0.163887 -0.036946 -0.020945
0.171387 -0.029446 -0.028445
0.171387 -0.021946 -0.073445
0.171387 -0.021946 -0.065945
0.171387 -0.014446 -0.073445
0.163887 -0.021946 -0.058445
0.163887 -0.021946 -0.050945
0.171387 -0.014446 -0.058445
0.171387 -0.014446 -0.050945
0.171387 -0.006946 -0.050945
0.178887 -0.014446 -0.073445
0.186387 -0.006946 -0.073445
0.186387 0.000554 -0.073445
0.178887 -0.006946 -0.058445
0.178887 0.000554 -0.050945
0.186387 0.000554 -0.058445
0.163887 -0.021946 -0.043445
0.171387 -0.014446 -0.043445
0.163887 -0.021946 -0.028445
0.171387 -0.021946 -0.020945
0.171387 -0.014446 -0.028445
0.178887 -0.014446 -0.020945
0.178887 -0.006946 -0.043445
0.178887 0.000554 -0.035945
0.186387 0.000554 -0.035945
0.178887 -0.006946 -0.028445
0.178887 -0.006946 -0.020945
0.178887 0.000554 -0.028445
0.186387 0.000554 -0.020945
0.193887 -0.111946 -0.133445
0.193887 -0.104446 -0.133445
0.201387 -0.111946 -0.125945
0.201387 -0.104446 -0.133445
0.193887 -0.089446 -0.125945
0.216387 -0.111946 -0.125945
0.216387 -0.104446 -0.125945
0.208887 -0.089446 -0.133445
0.216387 -0.096946 -0.125945
0.193887 -0.081946 -0.125945
0.193887 -0.074446 -0.125945
0.201387 -0.081946 -0.133445
0.201387 -0.074446 -0.125945
0.193887 -0.059446 -0.125945
0.201387 -0.066946 -0.125945
0.216387 -0.081946 -0.133445
0.216387 -0.074446 -0.133445
0.208887 -0.066946 -0.125945
0.223887 -0.111946 -0.125945
0.223887 -0.104446 -0.125945
0.231387 -0.111946 -0.125945
0.231387 -0.104446 -0.125945
0.223887 -0.089446 -0.125945
0.231387 -0.089446 -0.125945
0.238887 -0.111946 -0.133445
0.238887 -0.104446 -0.125945
0.238887 -0.096946 -0.125945
0.246387 -0.089446 -0.125945
0.223887 -0.081946 -0.133445
0.223887 -0.074446 -0.133445
0.231387 -0.081946 -0.125945
0.231387 -0.074446 -0.125945
0.223887 -0.066946 -0.125945
0.231387 -0.059446 -0.125945
0.238887 -0.081946 -0.125945
0.238887 -0.074446 -0.125945
0.246387 -0.074446 -0.125945
0.238887 -0.059446 -0.125945
0.246387 -0.059446 -0.125945
0.193887 -0.051946 -0.125945
0.201387 -0.051946 -0.125945
0.201387 -0.044446 -0.125945
0.193887 -0.044446 -0.118445
0.193887 -0.036946 -0.118445
0.193887 -0.036946 -0.110945
0.201387 -0.036946 -0.118445
0.208887 -0.044446 -0.125945
0.216387 -0.051946 -0.125945
0.216387 -0.044446 -0.125945
0.208887 -0.036946 -0.125945
0.216387 -0.036946 -0.125945
0.193887 -0.021946 -0.110945
0.201387 -0.021946 -0.118445
0.201387 -0.021946 -0.110945
0.201387 -0.014446 -0.110945
0.208887 -0.021946 -0.118445
0.208887 -0.014446 -0.118445
0.208887 -0.014446 -0.110945
0.208887 -0.006946 -0.110945
0.216387 -0.006946 -0.118445
0.193887 -0.014446 -0.103445
0.193887 -0.006946 -0.095945
0.201387 -0.006946 -0.103445
0.201387 0.000554 -0.103445
0.201387 0.000554 -0.095945
0.193887 -0.006946 -0.088445
0.193887 0.000554 -0.088445
0.193887 0.000554 -0.080945
0.223887 -0.051946 -0.133445
0.223887 -0.044446 -0.125945
0.231387 -0.051946 -0.133445
0.231387 -0.044446 -0.133445
0.223887 -0.036946 -0.125945
0.223887 -0.029446 -0.125945
0.231387 -0.029446 -0.125945
0.238887 -0.051946 -0.125945
0.238887 -0.044446 -0.125945
0.238887 -0.036946 -0.125945
0.231387 -0.021946 -0.125945
0.231387 -0.014446 -0.125945
0.223887 -0.014446 -0.118445
0.231387 -0.006946 -0.125945
0.223887 -0.006946 -0.118445
0.223887 0.000554 -0.118445
0.238887 -0.021946 -0.125945
0.238887 -0.014446 -0.125945
0.238887 -0.006946 -0.125945
0.246387 0.000554 -0.125945
0.133887 -0.111946 -0.013445
0.133887 -0.111946 -0.005945
0.133887 -0.104446 -0.013445
0.141387 -0.104446 -0.005945
0.141387 -0.111946 0.001555
0.141387 -0.104446 0.001555
0.133887 -0.096946 -0.013445
0.141387 -0.096946 -0.005945
0.141387 -0.089446 -0.013445
0.141387 -0.089446 -0.005945
0.148887 -0.111946 0.009055
0.148887 -0.104446 0.001555
0.156387 -0.104446 0.009055
0.148887 -0.096946 0.001555
0.156387 -0.096946 0.009055
0.156387 -0.111946 0.016555
0.141387 -0.081946 -0.013445
0.148887 -0.081946 -0.005945
0.148887 -0.074446 -0.013445
0.148887 -0.074446 -0.005945
0.156387 -0.074446 -0.005945
0.148887 -0.081946 0.001555
0.156387 -0.081946 0.001555
0.148887 -0.066946 -0.013445
0.156387 -0.066946 -0.013445
0.156387 -0.066946 -0.005945
0.163887 -0.089446 0.009055
0.163887 -0.111946 0.016555
0.163887 -0.111946 0.024055
0.163887 -0.104446 0.016555
0.171387 -0.111946 0.024055
0.171387 -0.104446 0.016555
0.163887 -0.096946 0.016555
0.171387 -0.096946 0.016555
0.178887 -0.104446 0.024055
0.186387 -0.104446 0.024055
0.178887 -0.111946 0.031555
0.186387 -0.111946 0.031555
0.186387 -0.104446 0.031555
0.178887 -0.089446 0.016555
0.186387 -0.096946 0.024055
0.163887 -0.081946 0.009055
0.163887 -0.074446 0.001555
0.171387 -0.081946 0.009055
0.171387 -0.074446 0.009055
0.163887 -0.066946 0.001555
0.163887 -0.059446 0.001555
0.171387 -0.066946 0.009055
0.178887 -0.059446 0.009055
0.186387 -0.059446 0.009055
0.171387 -0.081946 0.016555
0.178887 -0.081946 0.016555
0.178887 -0.074446 0.016555
0.186387 -0.074446 0.016555
0.186387 -0.066946 0.016555
0.171387 -0.111946 0.061555
0.186387 -0.111946 0.054055
0.186387 -0.111946 0.061555
0.171387 -0.111946 0.076555
0.171387 -0.111946 0.084055
0.171387 -0.111946 0.091555
0.178887 -0.104446 0.084055
0.186387 -0.111946 0.076555
0.186387 -0.104446 0.076555
0.186387 -0.104446 0.084055
0.178887 -0.111946 0.091555
0.186387 -0.104446 0.091555
0.156387 -0.051946 -0.013445
0.163887 -0.051946 -0.013445
0.163887 -0.051946 -0.005945
0.163887 -0.044446 -0.013445
0.163887 -0.044446 -0.005945
0.171387 -0.044446 -0.005945
0.171387 -0.051946 0.001555
0.163887 -0.036946 -0.013445
0.171387 -0.029446 -0.013445
0.178887 -0.051946 0.001555
0.178887 -0.044446 0.001555
0.186387 -0.051946 0.009055
0.186387 -0.044446 0.009055
0.178887 -0.036946 -0.005945
0.178887 -0.029446 0.001555
0.186387 -0.036946 0.001555
0.186387 -0.029446 0.001555
0.171387 -0.021946 -0.013445
0.178887 -0.021946 -0.013445
0.178887 -0.021946 -0.005945
0.178887 -0.014446 -0.013445
0.186387 -0.014446 -0.005945
0.186387 -0.014446 0.001555
0.186387 -0.006946 -0.013445
0.186387 0.000554 -0.013445
0.193887 -0.111946 0.031555
0.193887 -0.104446 0.031555
0.201387 -0.111946 0.031555
0.201387 -0.104446 0.031555
0.193887 -0.089446 0.024055
0.201387 -0.089446 0.024055
0.208887 -0.111946 0.031555
0.208887 -0.104446 0.031555
0.216387 -0.104446 0.031555
0.216387 -0.096946 0.024055
0.193887 -0.081946 0.016555
0.193887 -0.081946 0.024055
0.193887 -0.074446 0.016555
0.193887 -0.074446 0.024055
0.201387 -0.081946 0.024055
0.201387 -0.074446 0.024055
0.193887 -0.059446 0.016555
0.201387 -0.066946 0.024055
0.216387 -0.081946 0.024055
0.216387 -0.074446 0.024055
0.208887 -0.066946 0.024055
0.231387 -0.104446 0.024055
0.223887 -0.111946 0.031555
0.223887 -0.104446 0.031555
0.231387 -0.111946 0.031555
0.223887 -0.089446 0.024055
0.231387 -0.089446 0.024055
0.238887 -0.111946 0.024055
0.238887 -0.104446 0.024055
0.246387 -0.111946 0.024055
0.238887 -0.089446 0.024055
0.246387 -0.096946 0.024055
0.223887 -0.081946 0.024055
0.223887 -0.074446 0.024055
0.231387 -0.081946 0.024055
0.231387 -0.074446 0.024055
0.223887 -0.059446 0.024055
0.231387 -0.059446 0.024055
0.238887 -0.081946 0.024055
0.238887 -0.074446 0.024055
0.238887 -0.059446 0.024055
0.193887 -0.111946 0.061555
0.193887 -0.111946 0.069055
0.201387 -0.111946 0.069055
0.193887 -0.104446 0.076555
0.193887 -0.104446 0.084055
0.201387 -0.111946 0.076555
0.201387 -0.104446 0.076555
0.201387 -0.104446 0.084055
0.193887 -0.104446 0.091555
0.201387 -0.096946 0.091555
0.201387 -0.096946 0.099055
0.208887 -0.111946 0.076555
0.216387 -0.111946 0.076555
0.216387 -0.111946 0.084055
0.216387 -0.104446 0.084055
0.208887 -0.096946 0.091555
0.208887 -0.089446 0.099055
0.216387 -0.096946 0.091555
0.223887 -0.111946 0.084055
0.223887 -0.104446 0.091555
0.231387 -0.111946 0.091555
0.231387 -0.104446 0.099055
0.223887 -0.096946 0.099055
0.223887 -0.089446 0.099055
0.231387 -0.096946 0.099055
0.238887 -0.111946 0.099055
0.231387 -0.081946 0.099055
0.193887 -0.036946 0.009055
0.193887 -0.051946 0.016555
0.193887 -0.044446 0.016555
0.201387 -0.051946 0.016555
0.201387 -0.044446 0.016555
0.201387 -0.036946 0.016555
0.208887 -0.051946 0.024055
0.208887 -0.044446 0.024055
0.208887 -0.036946 0.024055
0.208887 -0.029446 0.016555
0.216387 -0.036946 0.024055
0.193887 -0.021946 0.009055
0.193887 -0.014446 0.001555
0.201387 -0.014446 0.009055
0.193887 -0.006946 -0.005945
0.193887 0.000554 -0.013445
0.193887 0.000554 -0.005945
0.193887 -0.006946 0.001555
0.201387 -0.006946 0.009055
0.201387 0.000554 0.009055
0.201387 -0.021946 0.016555
0.201387 -0.014446 0.016555
0.208887 -0.014446 0.016555
0.208887 0.000554 0.016555
0.216387 -0.006946 0.016555
0.216387 0.000554 0.016555
0.216387 0.000554 0.024055
0.223887 -0.051946 0.024055
0.223887 -0.044446 0.024055
0.231387 -0.051946 0.024055
0.231387 -0.044446 0.024055
0.223887 -0.036946 0.024055
0.231387 -0.036946 0.024055
0.238887 -0.044446 0.024055
0.246387 -0.051946 0.024055
0.238887 -0.036946 0.031555
0.223887 -0.021946 0.024055
0.223887 -0.014446 0.024055
0.231387 -0.021946 0.024055
0.231387 -0.014446 0.024055
0.223887 -0.006946 0.024055
0.223887 0.000554 0.024055
0.231387 -0.006946 0.024055
0.238887 -0.021946 0.031555
0.238887 -0.014446 0.031555
0.238887 -0.006946 0.031555
0.238887 0.000554 0.031555
0.246387 0.000554 0.031555
0.231387 -0.029446 0.099055
0.238887 -0.044446 0.099055
0.238887 -0.036946 0.099055
0.238887 -0.029446 0.091555
0.246387 -0.029446 0.099055
0.223887 -0.014446 0.084055
0.231387 -0.014446 0.076555
0.231387 -0.014446 0.084055
0.223887 -0.021946 0.091555
0.223887 -0.021946 0.099055
0.223887 -0.014446 0.091555
0.231387 -0.021946 0.099055
0.223887 -0.006946 0.084055
0.223887 0.000554 0.076555
0.231387 -0.006946 0.076555
0.223887 -0.006946 0.091555
0.223887 -0.006946 0.099055
0.223887 0.000554 0.099055
0.238887 -0.021946 0.084055
0.238887 -0.014446 0.076555
0.238887 -0.014446 0.084055
0.238887 -0.006946 0.076555
0.238887 0.000554 0.076555
0.246387 -0.006946 0.076555
0.246387 -0.006946 0.084055
0.133887 0.045554 -0.080945
0.133887 0.060554 -0.095945
0.133887 0.053054 -0.088445
0.133887 0.053054 -0.080945
0.133887 0.060554 -0.088445
0.141387 0.060554 -0.088445
0.141387 0.060554 -0.080945
0.133887 0.045554 -0.073445
0.133887 0.038054 -0.058445
0.133887 0.045554 -0.058445
0.133887 0.045554 -0.050945
0.141387 0.053054 -0.073445
0.133887 0.053054 -0.058445
0.141387 0.053054 -0.058445
0.141387 0.053054 -0.050945
0.148887 0.060554 -0.073445
0.156387 0.060554 -0.065945
0.148887 0.060554 -0.058445
0.148887 0.060554 -0.050945
0.133887 0.045554 -0.043445
0.133887 0.045554 -0.035945
0.133887 0.053054 -0.043445
0.133887 0.053054 -0.035945
0.141387 0.053054 -0.043445
0.141387 0.060554 -0.035945
0.133887 0.053054 -0.020945
0.133887 0.060554 -0.020945
0.141387 0.060554 -0.028445
0.148887 0.060554 -0.043445
0.186387 0.008054 -0.073445
0.178887 0.008054 -0.050945
0.186387 0.008054 -0.058445
0.186387 0.015554 -0.058445
0.186387 0.015554 -0.050945
0.178887 0.008054 -0.043445
0.186387 0.008054 -0.035945
0.186387 0.015554 -0.043445
0.186387 0.015554 -0.035945
0.186387 0.008054 -0.020945
0.133887 0.075554 -0.110945
0.133887 0.083054 -0.118445
0.133887 0.083054 -0.110945
0.133887 0.090554 -0.118445
0.141387 0.083054 -0.110945
0.141387 0.090554 -0.118445
0.141387 0.090554 -0.110945
0.156387 0.090554 -0.110945
0.133887 0.068054 -0.103445
0.141387 0.068054 -0.095945
0.141387 0.075554 -0.103445
0.148887 0.075554 -0.095945
0.156387 0.075554 -0.095945
0.148887 0.068054 -0.088445
0.148887 0.068054 -0.080945
0.156387 0.068054 -0.080945
0.156387 0.075554 -0.088445
0.148887 0.083054 -0.103445
0.156387 0.083054 -0.095945
0.156387 0.090554 -0.103445
0.133887 0.098054 -0.125945
0.133887 0.105554 -0.125945
0.141387 0.098054 -0.118445
0.133887 0.113054 -0.125945
0.133887 0.120554 -0.133445
0.141387 0.113054 -0.125945
0.141387 0.120554 -0.125945
0.148887 0.105554 -0.125945
0.156387 0.098054 -0.110945
0.156387 0.105554 -0.118445
0.156387 0.113054 -0.125945
0.156387 0.120554 -0.125945
0.163887 0.075554 -0.080945
0.163887 0.083054 -0.095945
0.163887 0.090554 -0.103445
0.171387 0.090554 -0.095945
0.163887 0.083054 -0.088445
0.171387 0.083054 -0.088445
0.171387 0.083054 -0.080945
0.178887 0.090554 -0.095945
0.178887 0.083054 -0.088445
0.186387 0.083054 -0.080945
0.186387 0.090554 -0.088445
0.163887 0.098054 -0.110945
0.163887 0.105554 -0.118445
0.171387 0.098054 -0.110945
0.163887 0.120554 -0.125945
0.171387 0.120554 -0.125945
0.163887 0.113054 -0.118445
0.171387 0.113054 -0.118445
0.178887 0.105554 -0.110945
0.186387 0.105554 -0.110945
0.186387 0.120554 -0.125945
0.186387 0.113054 -0.118445
0.163887 0.098054 -0.103445
0.178887 0.098054 -0.103445
0.156387 0.068054 -0.073445
0.156387 0.068054 -0.065945
0.156387 0.068054 -0.050945
0.141387 0.068054 -0.028445
0.141387 0.075554 -0.020945
0.148887 0.068054 -0.035945
0.156387 0.068054 -0.043445
0.156387 0.075554 -0.035945
0.148887 0.068054 -0.028445
0.148887 0.075554 -0.020945
0.156387 0.075554 -0.028445
0.156387 0.075554 -0.020945
0.163887 0.075554 -0.073445
0.171387 0.075554 -0.073445
0.163887 0.068054 -0.058445
0.163887 0.068054 -0.050945
0.171387 0.075554 -0.058445
0.171387 0.075554 -0.050945
0.178887 0.075554 -0.073445
0.186387 0.075554 -0.073445
0.186387 0.075554 -0.065945
0.186387 0.075554 -0.058445
0.186387 0.075554 -0.050945
0.163887 0.075554 -0.043445
0.163887 0.075554 -0.035945
0.171387 0.075554 -0.043445
0.171387 0.075554 -0.035945
0.163887 0.075554 -0.028445
0.163887 0.083054 -0.020945
0.171387 0.083054 -0.028445
0.171387 0.083054 -0.020945
0.178887 0.075554 -0.043445
0.186387 0.075554 -0.035945
0.186387 0.083054 -0.028445
0.186387 0.083054 -0.020945
0.216387 0.008054 -0.110945
0.193887 0.008054 -0.088445
0.193887 0.015554 -0.080945
0.201387 0.015554 -0.088445
0.201387 0.015554 -0.080945
0.201387 0.023054 -0.080945
0.208887 0.008054 -0.103445
0.208887 0.015554 -0.103445
0.208887 0.015554 -0.095945
0.216387 0.015554 -0.103445
0.216387 0.023054 -0.103445
0.216387 0.030554 -0.103445
0.216387 0.030554 -0.095945
0.208887 0.023054 -0.088445
0.208887 0.030554 -0.088445
0.208887 0.030554 -0.080945
0.216387 0.038054 -0.103445
0.216387 0.045554 -0.103445
0.208887 0.045554 -0.080945
0.216387 0.045554 -0.088445
0.216387 0.060554 -0.095945
0.208887 0.053054 -0.080945
0.208887 0.060554 -0.088445
0.208887 0.060554 -0.080945
0.216387 0.053054 -0.088445
0.223887 0.015554 -0.110945
0.231387 0.008054 -0.118445
0.231387 0.015554 -0.118445
0.223887 0.023054 -0.110945
0.231387 0.023054 -0.118445
0.231387 0.023054 -0.110945
0.231387 0.030554 -0.110945
0.238887 0.008054 -0.125945
0.238887 0.015554 -0.125945
0.246387 0.015554 -0.125945
0.246387 0.023054 -0.125945
0.238887 0.023054 -0.118445
0.238887 0.030554 -0.118445
0.223887 0.030554 -0.103445
0.231387 0.045554 -0.110945
0.231387 0.053054 -0.110945
0.231387 0.060554 -0.110945
0.238887 0.045554 -0.118445
0.246387 0.060554 -0.125945
0.238887 0.053054 -0.118445
0.238887 0.060554 -0.118445
0.223887 0.045554 -0.103445
0.223887 0.053054 -0.103445
0.223887 0.060554 -0.103445
0.193887 0.015554 -0.073445
0.193887 0.023054 -0.065945
0.201387 0.023054 -0.073445
0.201387 0.030554 -0.073445
0.201387 0.030554 -0.065945
0.193887 0.023054 -0.058445
0.193887 0.023054 -0.050945
0.193887 0.030554 -0.050945
0.193887 0.015554 -0.020945
0.193887 0.023054 -0.043445
0.193887 0.023054 -0.035945
0.193887 0.030554 -0.043445
0.201387 0.030554 -0.035945
0.193887 0.023054 -0.020945
0.201387 0.023054 -0.020945
0.201387 0.030554 -0.020945
0.201387 0.038054 -0.058445
0.201387 0.038054 -0.050945
0.201387 0.045554 -0.058445
0.201387 0.045554 -0.050945
0.201387 0.060554 -0.073445
0.201387 0.053054 -0.058445
0.201387 0.053054 -0.050945
0.201387 0.060554 -0.058445
0.201387 0.060554 -0.050945
0.208887 0.038054 -0.073445
0.208887 0.045554 -0.073445
0.208887 0.053054 -0.073445
0.201387 0.038054 -0.043445
0.201387 0.045554 -0.043445
0.201387 0.038054 -0.028445
0.201387 0.045554 -0.028445
0.201387 0.053054 -0.043445
0.201387 0.060554 -0.043445
0.201387 0.060554 -0.028445
0.208887 0.045554 -0.020945
0.208887 0.053054 -0.028445
0.208887 0.053054 -0.020945
0.208887 0.060554 -0.020945
0.193887 0.075554 -0.080945
0.201387 0.075554 -0.088445
0.201387 0.075554 -0.080945
0.193887 0.090554 -0.095945
0.201387 0.090554 -0.095945
0.193887 0.083054 -0.088445
0.193887 0.083054 -0.080945
0.201387 0.083054 -0.088445
0.208887 0.075554 -0.095945
0.216387 0.068054 -0.103445
0.216387 0.075554 -0.095945
0.208887 0.075554 -0.088445
0.208887 0.083054 -0.103445
0.208887 0.083054 -0.095945
0.208887 0.090554 -0.103445
0.216387 0.083054 -0.103445
0.216387 0.090554 -0.103445
0.193887 0.105554 -0.110945
0.201387 0.105554 -0.110945
0.201387 0.120554 -0.125945
0.193887 0.113054 -0.118445
0.193887 0.120554 -0.118445
0.201387 0.113054 -0.118445
0.208887 0.105554 -0.110945
0.216387 0.098054 -0.110945
0.208887 0.120554 -0.125945
0.216387 0.120554 -0.125945
0.216387 0.113054 -0.118445
0.193887 0.098054 -0.103445
0.201387 0.098054 -0.103445
0.231387 0.068054 -0.110945
0.223887 0.083054 -0.110945
0.223887 0.090554 -0.110945
0.231387 0.083054 -0.110945
0.231387 0.090554 -0.118445
0.246387 0.075554 -0.125945
0.238887 0.068054 -0.118445
0.238887 0.075554 -0.118445
0.238887 0.090554 -0.125945
0.246387 0.083054 -0.125945
0.246387 0.090554 -0.125945
0.238887 0.083054 -0.118445
0.223887 0.075554 -0.103445
