ply
format ascii 1.0
element vertex 1615
property float x
property float y
property float z
end_header
-0.394783 -0.206873 -0.121583
-0.404652 -0.204361 -0.123694
-0.426334 -0.204736 -0.121651
-0.435340 -0.206286 -0.119233
-0.449760 -0.211945 -0.111741
0.179169 -0.077701 -0.315286
0.171969 -0.075486 -0.317262
0.160062 -0.069451 -0.323187
0.152259 -0.065690 -0.326865
0.122450 -0.053612 -0.338308
0.114760 -0.049903 -0.341917
0.075403 -0.036109 -0.354586
0.050588 -0.027350 -0.362657
0.018243 -0.022354 -0.365892
-0.013186 -0.019361 -0.366914
-0.025966 -0.017470 -0.368105
-0.050483 -0.016419 -0.367459
-0.086263 -0.017418 -0.363678
-0.095046 -0.018112 -0.362214
-0.129119 -0.024111 -0.352883
-0.159413 -0.032765 -0.340828
-0.167656 -0.035249 -0.337422
-0.181391 -0.039467 -0.331599
-0.189328 -0.043059 -0.326967
-0.202957 -0.047797 -0.320565
-0.224267 -0.057357 -0.308169
-0.242141 -0.068850 -0.293832
-0.254405 -0.079218 -0.281198
-0.256194 -0.083791 -0.275885
-0.284043 -0.104728 -0.250106
-0.287696 -0.114206 -0.239106
-0.292900 -0.117719 -0.234747
-0.294078 -0.125130 -0.226301
-0.309030 -0.138850 -0.209648
-0.318093 -0.152062 -0.194017
-0.327689 -0.163454 -0.180429
-0.328927 -0.171252 -0.171507
-0.338484 -0.183341 -0.157102
-0.346874 -0.187340 -0.151959
-0.365965 -0.199175 -0.137146
-0.374736 -0.201753 -0.133570
-0.413864 -0.207971 -0.123626
-0.441423 -0.209993 -0.119301
-0.475904 -0.224789 -0.099992
0.192101 -0.088643 -0.308544
0.183490 -0.083162 -0.314060
0.140894 -0.063435 -0.333165
0.100776 -0.048476 -0.347060
0.092987 -0.044384 -0.351112
0.085319 -0.040547 -0.354858
0.070903 -0.035076 -0.359966
0.064044 -0.033182 -0.361601
0.043538 -0.027502 -0.366471
0.031121 -0.026887 -0.366232
0.002195 -0.022635 -0.368889
-0.032405 -0.018994 -0.370421
-0.062630 -0.018789 -0.368378
-0.103915 -0.021199 -0.362555
-0.120961 -0.024157 -0.357957
-0.137475 -0.028821 -0.351419
-0.194735 -0.047816 -0.325673
-0.216708 -0.054953 -0.315967
-0.229204 -0.063949 -0.304866
-0.234072 -0.068090 -0.299826
-0.261648 -0.088827 -0.274352
-0.271737 -0.096496 -0.264919
-0.276314 -0.102199 -0.258142
-0.298865 -0.133287 -0.221329
-0.310834 -0.146883 -0.205085
-0.334576 -0.176482 -0.169838
-0.336567 -0.181207 -0.164355
-0.349223 -0.193616 -0.149405
-0.354171 -0.199219 -0.142697
-0.359729 -0.202198 -0.138917
-0.379965 -0.209343 -0.129347
-0.388999 -0.210810 -0.126997
-0.401254 -0.211786 -0.124988
-0.419928 -0.211776 -0.123592
-0.429268 -0.211703 -0.122979
-0.449545 -0.219227 -0.112967
-0.454766 -0.224450 -0.106667
-0.477702 -0.218141 -0.112081
0.167286 -0.077099 -0.324345
0.155815 -0.072056 -0.329181
0.148365 -0.069116 -0.331939
0.136138 -0.062062 -0.338955
0.128977 -0.059719 -0.341066
0.118100 -0.055806 -0.344676
0.110425 -0.052097 -0.348286
0.077361 -0.038554 -0.361090
0.056382 -0.031807 -0.367118
0.024425 -0.027897 -0.369127
0.011679 -0.026306 -0.369945
-0.004637 -0.023165 -0.372294
-0.017014 -0.022420 -0.372192
-0.041747 -0.020820 -0.372124
-0.075187 -0.019917 -0.370660
-0.112816 -0.024183 -0.362997
-0.145925 -0.033261 -0.350295
-0.154388 -0.034990 -0.347707
-0.173646 -0.040698 -0.339806
-0.187327 -0.045119 -0.333812
-0.208724 -0.054094 -0.322063
-0.222187 -0.059573 -0.314878
-0.244973 -0.075057 -0.295705
-0.250026 -0.078651 -0.291244
-0.266717 -0.095349 -0.271152
-0.278413 -0.108632 -0.255316
-0.283229 -0.113542 -0.249390
-0.286351 -0.125153 -0.236075
-0.303502 -0.142150 -0.215608
-0.313008 -0.153461 -0.202122
-0.317095 -0.161994 -0.192178
-0.318963 -0.167040 -0.186355
-0.341508 -0.189594 -0.159213
-0.362101 -0.208514 -0.136328
-0.371001 -0.210571 -0.133331
-0.382393 -0.215550 -0.126861
-0.395004 -0.214907 -0.126657
-0.407389 -0.215265 -0.125329
-0.435135 -0.216509 -0.121821
-0.444416 -0.216712 -0.120901
0.195895 -0.095499 -0.310383
0.186738 -0.088747 -0.317296
0.178502 -0.084106 -0.321893
0.096463 -0.050668 -0.353394
0.088848 -0.046979 -0.356970
0.049521 -0.032467 -0.370387
0.036724 -0.030869 -0.371204
-0.023575 -0.023626 -0.374848
-0.066354 -0.022010 -0.373452
-0.084140 -0.022760 -0.371239
-0.092716 -0.024063 -0.369127
-0.127176 -0.028834 -0.361158
-0.135338 -0.031455 -0.357617
-0.162969 -0.039047 -0.346958
-0.182219 -0.044832 -0.338989
-0.192882 -0.049352 -0.333097
-0.200987 -0.052432 -0.329011
-0.227322 -0.065437 -0.312392
-0.240057 -0.073775 -0.302039
-0.251855 -0.085820 -0.287566
-0.256488 -0.091072 -0.281300
-0.271343 -0.103619 -0.266043
-0.284809 -0.122093 -0.244214
-0.291332 -0.132459 -0.232056
-0.295775 -0.139125 -0.224224
-0.305346 -0.149983 -0.211249
-0.324056 -0.174499 -0.182234
-0.328964 -0.179888 -0.175798
-0.343546 -0.197183 -0.155195
-0.350338 -0.208342 -0.142118
-0.364283 -0.215731 -0.132753
-0.373293 -0.217349 -0.130233
-0.401023 -0.218952 -0.126350
-0.416945 -0.217246 -0.127099
-0.426341 -0.216914 -0.126759
-0.452760 -0.224868 -0.115793
0.191181 -0.094482 -0.315797
0.173658 -0.082694 -0.327751
0.162511 -0.078461 -0.331667
0.154534 -0.074275 -0.335788
0.146585 -0.070103 -0.339874
0.124981 -0.062806 -0.346447
0.113923 -0.058402 -0.350567
0.106358 -0.054936 -0.353905
0.080972 -0.045214 -0.362929
0.073531 -0.041867 -0.366131
0.066485 -0.039491 -0.368276
0.043065 -0.034159 -0.372499
0.030024 -0.031876 -0.374099
0.020589 -0.031036 -0.374338
0.007652 -0.028890 -0.375768
-0.008874 -0.025111 -0.378765
-0.030079 -0.024965 -0.377335
-0.048320 -0.024558 -0.376415
-0.101424 -0.027634 -0.368957
-0.118839 -0.029450 -0.365586
-0.171464 -0.043403 -0.345902
-0.214254 -0.061240 -0.322608
-0.232475 -0.071287 -0.309940
-0.261811 -0.096606 -0.279222
-0.276051 -0.111670 -0.261207
-0.297985 -0.145415 -0.221568
-0.307197 -0.157844 -0.206890
-0.312580 -0.161008 -0.202940
-0.314549 -0.165588 -0.197627
-0.333747 -0.188841 -0.170009
-0.338337 -0.195783 -0.161870
-0.356104 -0.213418 -0.140687
-0.378921 -0.223204 -0.127951
-0.388607 -0.221713 -0.128904
-0.410320 -0.222234 -0.126691
-0.432327 -0.221129 -0.126282
-0.447209 -0.224489 -0.121378
-0.468313 -0.227894 -0.115964
0.182446 -0.091349 -0.323289
0.138750 -0.068808 -0.345323
0.131710 -0.066761 -0.347094
0.098495 -0.053314 -0.359694
0.087639 -0.049194 -0.363508
0.058834 -0.038146 -0.373725
0.000743 -0.029220 -0.379378
-0.018049 -0.027458 -0.379923
-0.039580 -0.026337 -0.379548
-0.054761 -0.026008 -0.378765
-0.072873 -0.025831 -0.377607
-0.110338 -0.030576 -0.369434
-0.141274 -0.037016 -0.359864
-0.149384 -0.039855 -0.356050
-0.157532 -0.042604 -0.352338
-0.180017 -0.047584 -0.345051
-0.188149 -0.050495 -0.341168
-0.206623 -0.059164 -0.330032
-0.219811 -0.065577 -0.321825
-0.237893 -0.076229 -0.308476
-0.242552 -0.081199 -0.302550
-0.247269 -0.086022 -0.296761
-0.266489 -0.104623 -0.274421
-0.268336 -0.109133 -0.269210
-0.280452 -0.120999 -0.254975
-0.292741 -0.144734 -0.227357
-0.300115 -0.152062 -0.218571
-0.323389 -0.183151 -0.181860
-0.328720 -0.186793 -0.177364
-0.332652 -0.196466 -0.166195
-0.340486 -0.202895 -0.158396
-0.342294 -0.208565 -0.151891
-0.358230 -0.220854 -0.136873
-0.366798 -0.224493 -0.132140
-0.372100 -0.228837 -0.126861
-0.394547 -0.226159 -0.128189
-0.416521 -0.225420 -0.127338
-0.426058 -0.224437 -0.127746
-0.441740 -0.223730 -0.127338
-0.455907 -0.230866 -0.118245
-0.457316 -0.239831 -0.108063
0.195506 -0.102598 -0.316274
0.177416 -0.089509 -0.329589
0.169738 -0.086121 -0.332825
0.158262 -0.081058 -0.337627
0.120595 -0.064909 -0.352883
0.051667 -0.038003 -0.377879
0.038837 -0.036308 -0.378799
0.026155 -0.034935 -0.379378
0.016572 -0.033669 -0.380059
-0.024510 -0.028926 -0.382272
-0.064175 -0.027534 -0.380808
-0.081811 -0.028714 -0.378152
-0.090398 -0.029980 -0.376074
-0.125001 -0.034281 -0.368650
-0.133313 -0.036423 -0.365620
-0.166432 -0.045623 -0.352781
-0.196253 -0.056257 -0.338580
-0.224764 -0.072081 -0.318658
-0.252568 -0.091536 -0.294717
-0.254033 -0.097320 -0.288111
-0.273906 -0.113876 -0.268018
-0.282563 -0.127474 -0.252115
-0.301596 -0.161373 -0.212611
-0.305986 -0.168573 -0.204200
-0.311128 -0.172786 -0.199091
-0.331759 -0.203240 -0.163368
-0.344604 -0.215064 -0.149133
-0.350104 -0.218325 -0.145046
-0.360061 -0.229676 -0.131561
-0.370475 -0.239306 -0.119948
-0.381707 -0.230817 -0.128632
-0.390832 -0.231994 -0.126623
-0.401073 -0.227822 -0.130539
-0.409853 -0.230601 -0.126759
-0.435344 -0.227726 -0.128053
-0.451728 -0.239537 -0.113546
-0.466542 -0.226975 -0.126521
0.190438 -0.100734 -0.322642
0.185692 -0.096935 -0.326525
0.153297 -0.079244 -0.343893
0.145693 -0.075889 -0.347060
0.126944 -0.067951 -0.354552
0.115822 -0.063377 -0.358809
0.108519 -0.060555 -0.361431
0.094534 -0.056365 -0.365041
0.083512 -0.051780 -0.369366
0.075785 -0.047700 -0.373350
0.068952 -0.045868 -0.374882
0.062065 -0.043868 -0.376585
0.009755 -0.034273 -0.383362
-0.003171 -0.032060 -0.384860
-0.012605 -0.031065 -0.385269
-0.033829 -0.030820 -0.383907
-0.046246 -0.029801 -0.384111
-0.099069 -0.033654 -0.375768
-0.116477 -0.035483 -0.372396
-0.174911 -0.050029 -0.351657
-0.201247 -0.062444 -0.335754
-0.209292 -0.065792 -0.331395
-0.230167 -0.077038 -0.317194
-0.234832 -0.081924 -0.311370
-0.262412 -0.102743 -0.285931
-0.274813 -0.124909 -0.260152
-0.284429 -0.134952 -0.248164
-0.287601 -0.146535 -0.234951
-0.295018 -0.153625 -0.226438
-0.299697 -0.159505 -0.219490
-0.315626 -0.182646 -0.192348
-0.322306 -0.193569 -0.179612
-0.326057 -0.203975 -0.167659
-0.336300 -0.213462 -0.156250
-0.352068 -0.226451 -0.140483
-0.365920 -0.234503 -0.130403
-0.375020 -0.235838 -0.128223
-0.416333 -0.232453 -0.128870
-0.425845 -0.231623 -0.129109
-0.441484 -0.231196 -0.128394
-0.447134 -0.234141 -0.124647
-0.458597 -0.239279 -0.118041
-0.462643 -0.234317 -0.123285
0.181006 -0.095919 -0.331905
0.172796 -0.091272 -0.336503
0.164960 -0.087472 -0.340146
0.137983 -0.074879 -0.352168
0.101123 -0.060100 -0.365926
0.055065 -0.044176 -0.380229
0.044935 -0.041596 -0.382341
0.034630 -0.038488 -0.385031
0.022292 -0.037991 -0.384656
-0.055551 -0.031662 -0.385780
-0.070544 -0.031792 -0.384486
-0.108156 -0.036063 -0.376858
-0.139103 -0.042433 -0.367357
-0.147322 -0.044908 -0.363985
-0.155174 -0.048599 -0.359251
-0.180288 -0.054802 -0.350397
-0.188295 -0.058143 -0.346038
-0.214701 -0.070629 -0.330032
-0.222602 -0.074576 -0.325026
-0.243155 -0.087309 -0.309225
-0.247910 -0.091997 -0.303606
-0.264485 -0.109151 -0.283139
-0.268719 -0.116115 -0.275034
-0.272971 -0.123109 -0.266861
-0.279545 -0.133028 -0.255282
-0.285838 -0.144273 -0.242205
-0.289522 -0.153937 -0.231103
-0.298555 -0.166999 -0.215812
-0.305613 -0.175895 -0.205323
-0.310700 -0.180365 -0.199909
-0.324206 -0.201590 -0.175151
-0.331509 -0.210227 -0.164900
-0.341472 -0.221069 -0.152028
-0.347133 -0.223626 -0.148724
-0.351197 -0.233319 -0.137588
-0.381243 -0.239035 -0.128904
-0.395490 -0.230779 -0.137044
-0.404665 -0.231620 -0.135409
-0.432032 -0.234884 -0.129688
-0.449014 -0.243642 -0.118586
0.156680 -0.085201 -0.346651
0.148999 -0.081670 -0.349988
0.133239 -0.073492 -0.357923
0.122427 -0.069721 -0.361329
0.111653 -0.065963 -0.364700
0.090772 -0.059903 -0.369876
0.079392 -0.054362 -0.375189
0.015664 -0.039121 -0.387347
0.002862 -0.037272 -0.388436
-0.019257 -0.034641 -0.389696
-0.028591 -0.033856 -0.389866
-0.040462 -0.034393 -0.388368
-0.079600 -0.034317 -0.385440
-0.088359 -0.035059 -0.383941
-0.122704 -0.040110 -0.375666
-0.131003 -0.042284 -0.372601
-0.163948 -0.052028 -0.359217
-0.193716 -0.062835 -0.344846
-0.227990 -0.079566 -0.323528
-0.232649 -0.084453 -0.317704
-0.252554 -0.099945 -0.298872
-0.257252 -0.104979 -0.292913
-0.297621 -0.173659 -0.213054
-0.353531 -0.239883 -0.134762
-0.363057 -0.239314 -0.134694
-0.368706 -0.242118 -0.131118
-0.387503 -0.242053 -0.129756
-0.397911 -0.237144 -0.134455
-0.403340 -0.241059 -0.129653
-0.408597 -0.245881 -0.123864
-0.413105 -0.239105 -0.131118
-0.422402 -0.239387 -0.130062
-0.438236 -0.238071 -0.130335
-0.446882 -0.241628 -0.125703
-0.455222 -0.246876 -0.119199
-0.466770 -0.235057 -0.131527
0.188812 -0.104886 -0.331701
0.176726 -0.098510 -0.337899
0.104363 -0.065787 -0.368889
0.097217 -0.063291 -0.371102
0.071646 -0.052831 -0.380842
0.064640 -0.050525 -0.382851
0.051118 -0.047096 -0.385644
0.040630 -0.043533 -0.388845
0.027834 -0.041835 -0.389730
-0.006507 -0.039114 -0.390139
-0.062093 -0.035426 -0.390003
-0.097159 -0.038330 -0.384077
-0.114651 -0.039863 -0.381012
-0.145286 -0.047197 -0.370489
-0.153190 -0.050697 -0.365994
-0.172615 -0.055810 -0.358774
-0.182806 -0.061841 -0.351283
-0.199047 -0.067861 -0.343314
-0.207025 -0.071427 -0.338716
-0.238151 -0.089111 -0.316581
-0.245876 -0.093932 -0.310621
-0.262326 -0.111469 -0.289779
-0.272468 -0.130698 -0.267542
-0.291536 -0.163892 -0.229060
-0.296268 -0.169581 -0.222317
-0.302035 -0.183704 -0.206141
-0.323224 -0.211641 -0.173312
-0.328130 -0.217273 -0.166671
-0.337786 -0.229483 -0.152300
-0.345377 -0.237354 -0.142935
-0.347510 -0.241780 -0.137827
-0.374350 -0.248015 -0.128802
-0.394065 -0.243636 -0.132208
-0.431649 -0.242969 -0.130062
0.171715 -0.096662 -0.344165
0.163542 -0.092026 -0.348728
0.144506 -0.083596 -0.356629
0.136762 -0.079830 -0.360239
0.129176 -0.076404 -0.363474
0.118084 -0.071896 -0.367663
0.085925 -0.060660 -0.377709
0.057329 -0.050024 -0.387381
0.021348 -0.043354 -0.392046
0.011901 -0.042408 -0.392353
-0.013907 -0.037995 -0.395281
-0.023116 -0.037565 -0.395077
-0.034815 -0.038589 -0.393034
-0.044389 -0.037063 -0.393987
-0.071356 -0.037350 -0.391603
-0.106067 -0.041268 -0.384554
-0.136761 -0.048390 -0.374270
-0.161868 -0.054415 -0.365620
-0.177871 -0.060983 -0.357072
-0.191805 -0.064562 -0.352032
-0.212480 -0.076097 -0.337558
-0.220307 -0.080291 -0.332314
-0.230785 -0.085842 -0.325299
-0.255066 -0.107425 -0.299383
-0.274351 -0.138024 -0.263796
-0.352230 -0.251731 -0.131084
-0.361391 -0.252913 -0.129075
-0.380486 -0.251668 -0.129006
-0.390207 -0.250146 -0.129926
-0.406038 -0.249233 -0.129756
-0.415683 -0.247896 -0.130505
-0.425527 -0.245486 -0.132446
-0.437858 -0.246159 -0.130743
-0.440023 -0.251038 -0.125124
-0.449153 -0.252216 -0.123115
-0.458958 -0.249800 -0.125056
0.184518 -0.107474 -0.337695
0.158910 -0.091022 -0.354041
0.151296 -0.087649 -0.357208
0.110424 -0.070815 -0.372805
0.092597 -0.064653 -0.378288
0.078225 -0.059279 -0.383158
0.047014 -0.049583 -0.391569
0.034076 -0.047543 -0.392829
0.004969 -0.042659 -0.396031
-0.029762 -0.038470 -0.398006
-0.080507 -0.039576 -0.392863
-0.089293 -0.040223 -0.391467
-0.120822 -0.044646 -0.384111
-0.128754 -0.047956 -0.379820
-0.151298 -0.052504 -0.373010
-0.196986 -0.070082 -0.349954
-0.225499 -0.085974 -0.330066
-0.240884 -0.095673 -0.318079
-0.247935 -0.103021 -0.309361
-0.261835 -0.118932 -0.290563
-0.289333 -0.166173 -0.235871
-0.296519 -0.186811 -0.212339
-0.301446 -0.191921 -0.206277
-0.324850 -0.223890 -0.168885
-0.330428 -0.240212 -0.150291
-0.346560 -0.252009 -0.135920
-0.354513 -0.258614 -0.127951
-0.367343 -0.257447 -0.128291
-0.411904 -0.254186 -0.128496
-0.431171 -0.251550 -0.129926
-0.442424 -0.257858 -0.122059
0.179486 -0.105608 -0.343995
0.167281 -0.098831 -0.350567
0.142903 -0.084974 -0.364087
0.135433 -0.081855 -0.366982
0.124789 -0.078492 -0.369911
0.103104 -0.070541 -0.377062
0.070705 -0.058304 -0.388164
0.063332 -0.055029 -0.391229
0.027159 -0.047922 -0.396337
-0.001517 -0.044102 -0.398380
-0.038553 -0.041811 -0.398074
-0.050864 -0.041035 -0.397972
-0.065898 -0.041030 -0.396814
-0.098047 -0.043615 -0.391467
-0.112689 -0.044667 -0.389151
-0.142831 -0.053514 -0.376994
-0.167534 -0.060890 -0.366914
-0.176160 -0.062099 -0.364905
-0.183821 -0.066562 -0.359353
-0.202373 -0.074925 -0.348592
-0.210284 -0.078741 -0.343756
-0.233156 -0.093671 -0.325401
-0.256991 -0.117144 -0.297476
-0.276846 -0.145860 -0.264000
-0.294916 -0.183703 -0.220546
-0.348783 -0.259121 -0.132548
-0.360746 -0.261899 -0.128564
-0.373808 -0.259628 -0.130062
-0.383380 -0.258881 -0.130164
-0.403407 -0.252944 -0.135239
-0.425166 -0.253444 -0.132991
-0.436413 -0.259745 -0.125124
-0.452634 -0.256527 -0.127440
0.174643 -0.104166 -0.349818
0.116818 -0.076665 -0.375836
0.095987 -0.070736 -0.380808
0.088465 -0.067226 -0.384145
0.058834 -0.053890 -0.396644
0.042951 -0.052151 -0.397359
0.020451 -0.048833 -0.399300
0.010959 -0.047747 -0.399742
-0.008569 -0.043952 -0.402467
-0.017226 -0.045068 -0.400560
-0.075093 -0.043130 -0.398210
-0.134515 -0.054045 -0.381489
-0.157323 -0.057769 -0.375598
-0.189349 -0.070866 -0.358570
-0.215515 -0.084211 -0.341747
-0.223360 -0.088373 -0.336537
-0.265237 -0.134709 -0.281845
-0.266868 -0.140115 -0.275715
-0.268724 -0.144698 -0.270470
-0.277722 -0.157211 -0.255895
-0.279387 -0.162694 -0.249697
-0.299391 -0.193504 -0.213939
-0.337361 -0.257018 -0.140483
-0.342549 -0.261879 -0.134694
-0.351217 -0.265332 -0.130198
-0.366772 -0.266134 -0.128087
-0.389276 -0.263716 -0.129041
-0.402642 -0.259710 -0.132480
-0.430798 -0.259612 -0.130403
-0.446163 -0.260855 -0.127849
-0.456996 -0.253036 -0.135681
0.182550 -0.110773 -0.347673
0.161482 -0.097670 -0.360545
0.153525 -0.093460 -0.364598
0.146269 -0.090915 -0.366880
0.139096 -0.088540 -0.368957
0.131308 -0.084608 -0.372703
0.108873 -0.074845 -0.381761
0.079895 -0.063610 -0.391978
0.051907 -0.054330 -0.400083
0.036122 -0.052793 -0.400560
0.004083 -0.048134 -0.403250
-0.023744 -0.046348 -0.403080
-0.030522 -0.044232 -0.404885
-0.060103 -0.045693 -0.400969
-0.084289 -0.045200 -0.399641
-0.092836 -0.046550 -0.397495
-0.104318 -0.048092 -0.394873
-0.118432 -0.050769 -0.390820
-0.126565 -0.053442 -0.387244
-0.149006 -0.058294 -0.380093
-0.162735 -0.062355 -0.374542
-0.181900 -0.068359 -0.366403
-0.194841 -0.075315 -0.357685
-0.228782 -0.093251 -0.335175
-0.270670 -0.151806 -0.266997
-0.275976 -0.154937 -0.263114
-0.281187 -0.170552 -0.245406
-0.311687 -0.222525 -0.185435
-0.357270 -0.269455 -0.129858
-0.376843 -0.266190 -0.131969
-0.382531 -0.268976 -0.128462
-0.426060 -0.270864 -0.122979
-0.439625 -0.265492 -0.127883
-0.450543 -0.257352 -0.136090
0.177702 -0.109323 -0.353462
0.169686 -0.105076 -0.357549
0.126750 -0.083621 -0.377947
0.101019 -0.073193 -0.387517
0.094213 -0.071508 -0.388845
0.073003 -0.064245 -0.395213
0.065551 -0.060760 -0.398516
0.029279 -0.053366 -0.403863
0.016519 -0.051661 -0.404783
-0.002687 -0.048777 -0.406451
-0.039484 -0.047073 -0.405498
-0.066624 -0.046840 -0.403625
-0.140509 -0.059404 -0.383975
-0.171206 -0.066754 -0.373452
-0.187185 -0.073464 -0.364768
-0.200367 -0.079670 -0.356901
-0.208403 -0.083028 -0.352542
-0.213485 -0.086260 -0.348558
-0.233468 -0.100830 -0.330884
-0.283209 -0.177578 -0.242068
-0.334201 -0.263091 -0.143412
-0.339244 -0.268600 -0.136941
-0.344343 -0.273944 -0.130607
-0.362880 -0.275632 -0.127304
-0.369845 -0.272548 -0.130198
-0.430050 -0.269593 -0.128802
-0.448496 -0.254874 -0.143650
0.185793 -0.116360 -0.350908
0.164699 -0.103223 -0.363780
0.156732 -0.099001 -0.367833
0.134493 -0.090124 -0.375904
0.118778 -0.081787 -0.383907
0.086657 -0.070514 -0.393851
0.057995 -0.059586 -0.403693
0.047916 -0.057094 -0.405668
0.009670 -0.052131 -0.408154
-0.011984 -0.050755 -0.407984
-0.073127 -0.048010 -0.406247
-0.098844 -0.051826 -0.400049
-0.110493 -0.052854 -0.398006
-0.132234 -0.059813 -0.388607
-0.154860 -0.064108 -0.382102
-0.218793 -0.091476 -0.346855
-0.223602 -0.095761 -0.341747
-0.276247 -0.183642 -0.240468
-0.333264 -0.270204 -0.140347
-0.343248 -0.281858 -0.126657
-0.352660 -0.282130 -0.125635
-0.376002 -0.276218 -0.130369
-0.388188 -0.278071 -0.127372
-0.393514 -0.282698 -0.121821
-0.436813 -0.270076 -0.132412
0.148766 -0.097378 -0.373520
0.141591 -0.094996 -0.375598
0.125174 -0.084992 -0.385371
0.111030 -0.080448 -0.389288
0.079280 -0.069929 -0.398415
0.071423 -0.065425 -0.402773
0.041086 -0.057731 -0.408869
0.025170 -0.055735 -0.409857
0.003150 -0.053472 -0.410606
-0.018693 -0.051505 -0.411083
-0.028073 -0.050550 -0.411389
-0.045909 -0.051187 -0.409312
-0.081713 -0.051891 -0.405736
-0.090354 -0.052959 -0.403863
-0.119065 -0.056801 -0.397393
-0.127143 -0.059643 -0.393613
-0.146808 -0.063779 -0.387517
-0.163597 -0.067605 -0.381966
-0.177163 -0.072267 -0.375768
-0.189872 -0.079957 -0.366301
-0.203130 -0.085949 -0.358638
-0.207844 -0.090451 -0.353292
-0.228538 -0.102400 -0.338478
-0.282862 -0.184706 -0.243363
-0.329288 -0.276822 -0.138031
-0.338481 -0.278008 -0.136022
-0.345634 -0.288358 -0.124035
-0.359534 -0.282605 -0.129279
-0.368832 -0.283335 -0.127780
0.181509 -0.118933 -0.356867
0.171917 -0.110902 -0.364972
0.160353 -0.105545 -0.369979
0.132740 -0.091079 -0.383737
0.103498 -0.079603 -0.394124
0.096433 -0.077261 -0.396133
0.066941 -0.064339 -0.408086
0.053921 -0.062146 -0.409482
0.031341 -0.058654 -0.411560
0.018469 -0.056628 -0.412786
-0.003520 -0.054375 -0.413535
-0.034797 -0.051189 -0.414590
-0.052432 -0.052354 -0.411934
-0.105347 -0.055582 -0.404238
-0.138268 -0.065038 -0.391229
-0.172304 -0.071202 -0.381761
-0.182422 -0.077438 -0.374099
-0.198070 -0.085423 -0.364053
-0.218187 -0.099123 -0.347366
-0.255512 -0.198008 -0.235428
-0.265497 -0.195259 -0.237676
-0.272734 -0.191093 -0.241694
-0.331444 -0.284221 -0.134421
-0.351713 -0.292507 -0.123694
-0.368077 -0.289891 -0.125295
0.239674 -0.176838 -0.302244
0.176489 -0.117053 -0.363099
0.167100 -0.109457 -0.370728
0.121132 -0.087886 -0.390854
0.088622 -0.075610 -0.401820
0.077990 -0.071871 -0.405123
0.046725 -0.061832 -0.413705
0.008868 -0.057836 -0.415135
-0.010589 -0.054139 -0.417689
-0.017239 -0.052400 -0.419052
-0.041509 -0.051826 -0.417792
-0.070430 -0.055056 -0.411968
-0.096863 -0.056710 -0.408052
-0.113763 -0.060000 -0.403114
-0.152622 -0.069719 -0.389356
-0.210102 -0.098554 -0.353087
-0.220186 -0.105472 -0.344676
-0.251628 -0.203914 -0.233827
-0.283420 -0.200539 -0.235053
-0.320573 -0.279577 -0.145115
-0.325545 -0.285401 -0.138303
-0.333503 -0.292102 -0.130301
-0.345288 -0.295992 -0.125090
-0.362749 -0.302996 -0.115998
-0.384720 -0.288795 -0.129926
0.184749 -0.124521 -0.360103
0.162229 -0.107850 -0.376653
0.155368 -0.106283 -0.377845
0.147774 -0.102895 -0.380978
0.140369 -0.099929 -0.383634
0.128553 -0.093643 -0.389628
0.113380 -0.086538 -0.396235
0.073328 -0.070345 -0.410879
0.063064 -0.067433 -0.413296
0.039772 -0.062121 -0.417281
0.027558 -0.061894 -0.416566
0.002024 -0.058271 -0.418541
-0.026130 -0.055433 -0.419460
-0.050742 -0.053826 -0.419290
-0.079216 -0.058346 -0.412071
-0.088046 -0.058842 -0.410810
-0.122513 -0.063389 -0.403114
-0.130612 -0.066169 -0.399402
-0.144721 -0.068910 -0.395281
-0.161128 -0.073963 -0.388436
-0.174962 -0.077726 -0.383226
-0.187994 -0.084291 -0.374985
-0.203635 -0.092386 -0.364836
-0.245075 -0.208136 -0.234304
-0.260784 -0.195322 -0.247143
-0.276767 -0.193093 -0.248335
-0.312265 -0.277622 -0.152606
-0.361681 -0.311006 -0.112013
-0.369936 -0.302067 -0.121208
-0.377205 -0.297601 -0.125533
0.180072 -0.123472 -0.365449
0.171531 -0.117944 -0.370830
0.122772 -0.089569 -0.398142
0.105653 -0.085195 -0.401581
0.098332 -0.082196 -0.404306
0.083653 -0.075977 -0.409993
0.055907 -0.067257 -0.417349
0.020938 -0.063007 -0.419256
0.013924 -0.060388 -0.421572
-0.004952 -0.058305 -0.422389
-0.033131 -0.055272 -0.423479
-0.068397 -0.057492 -0.418268
-0.099540 -0.063002 -0.409755
-0.108476 -0.063156 -0.408869
-0.180310 -0.082583 -0.381898
-0.193264 -0.089487 -0.373282
-0.209169 -0.096752 -0.364053
-0.266665 -0.199325 -0.246870
-0.304838 -0.272034 -0.164015
-0.305631 -0.281997 -0.153015
-0.319570 -0.289930 -0.143207
-0.324232 -0.297165 -0.134898
-0.332519 -0.302513 -0.128360
-0.350964 -0.319528 -0.108233
-0.357881 -0.316965 -0.110481
-0.366099 -0.308275 -0.119403
0.166371 -0.115653 -0.377471
0.154023 -0.108300 -0.384554
0.138106 -0.099634 -0.392795
0.130239 -0.095447 -0.396780
0.091094 -0.082001 -0.408427
0.069175 -0.072737 -0.416838
0.048766 -0.067081 -0.421435
0.035533 -0.064156 -0.423581
0.006743 -0.059902 -0.425965
-0.011509 -0.059470 -0.425011
-0.021188 -0.057660 -0.426237
-0.039840 -0.055906 -0.426680
-0.048735 -0.056222 -0.425624
-0.091767 -0.061960 -0.415918
-0.117271 -0.066398 -0.409039
-0.136929 -0.070468 -0.403012
-0.150634 -0.074514 -0.397495
-0.166838 -0.080273 -0.389901
-0.198713 -0.094101 -0.372226
-0.239582 -0.211179 -0.240570
-0.249168 -0.210091 -0.241013
-0.256503 -0.205681 -0.245270
-0.273485 -0.199642 -0.250548
-0.326178 -0.305547 -0.130267
-0.374558 -0.301333 -0.131050
-0.385985 -0.291948 -0.140449
0.161433 -0.113871 -0.383567
0.145367 -0.104925 -0.392080
0.118657 -0.092249 -0.403863
0.111633 -0.090055 -0.405702
0.079546 -0.078530 -0.415782
0.061530 -0.071305 -0.422253
0.028732 -0.064785 -0.426782
0.021428 -0.061394 -0.429915
-0.000449 -0.059337 -0.430426
-0.028039 -0.057925 -0.429813
-0.063548 -0.059395 -0.425386
-0.072187 -0.060438 -0.423547
-0.080620 -0.062094 -0.421061
-0.100960 -0.063969 -0.417383
-0.125806 -0.070458 -0.408324
-0.158954 -0.079352 -0.395962
-0.175129 -0.085281 -0.388164
-0.186251 -0.088166 -0.384145
-0.203705 -0.100339 -0.369400
-0.279311 -0.203862 -0.250037
-0.299119 -0.288808 -0.155433
-0.344179 -0.327567 -0.109425
-0.354694 -0.323145 -0.113443
-0.361884 -0.319273 -0.117121
-0.369449 -0.313554 -0.122774
-0.378775 -0.299369 -0.137588
0.174108 -0.124604 -0.377335
0.149702 -0.110609 -0.390718
0.133748 -0.101778 -0.399096
0.104433 -0.090015 -0.409653
0.096831 -0.086278 -0.413126
0.089571 -0.083365 -0.415714
0.054688 -0.071930 -0.425454
0.044862 -0.070031 -0.426748
0.037422 -0.066358 -0.430188
0.013064 -0.065929 -0.428723
-0.015966 -0.060681 -0.432129
-0.109572 -0.067754 -0.416974
-0.142747 -0.076358 -0.404919
-0.190102 -0.098213 -0.377232
-0.239077 -0.218845 -0.241422
-0.245941 -0.216330 -0.243635
-0.253300 -0.211855 -0.247926
-0.260410 -0.208266 -0.251298
-0.267721 -0.203818 -0.255588
-0.340177 -0.334322 -0.107109
0.236549 -0.185773 -0.320054
0.168943 -0.122302 -0.383975
0.155976 -0.113431 -0.392625
0.143700 -0.106109 -0.399641
0.124946 -0.097858 -0.407166
0.117226 -0.093934 -0.410845
0.084826 -0.081659 -0.421674
0.077507 -0.078517 -0.424501
0.067076 -0.075152 -0.427361
0.030326 -0.066184 -0.434206
0.017607 -0.064469 -0.435091
0.005554 -0.064516 -0.434070
-0.006888 -0.063444 -0.434240
-0.022578 -0.061629 -0.434989
-0.034626 -0.061541 -0.434104
-0.075979 -0.063356 -0.428825
-0.086852 -0.066669 -0.424364
-0.095702 -0.067062 -0.423206
-0.118352 -0.071018 -0.417077
-0.131597 -0.076421 -0.410129
-0.151375 -0.080162 -0.404476
-0.164513 -0.086153 -0.396882
-0.181170 -0.090513 -0.390786
-0.197263 -0.107323 -0.371137
-0.336057 -0.341570 -0.104249
-0.347547 -0.332874 -0.112831
0.160844 -0.120388 -0.389935
0.135596 -0.103988 -0.405804
0.109419 -0.092371 -0.416395
0.060065 -0.075342 -0.431005
0.053291 -0.073498 -0.432503
0.045914 -0.070021 -0.435705
-0.058520 -0.064482 -0.433389
-0.067386 -0.064839 -0.432299
-0.104686 -0.069686 -0.424024
-0.126802 -0.075327 -0.416089
-0.156625 -0.085251 -0.402910
-0.172846 -0.091010 -0.395316
-0.193075 -0.114151 -0.368446
-0.236046 -0.224315 -0.244861
-0.250226 -0.217525 -0.251127
-0.257424 -0.213614 -0.254839
-0.320868 -0.355247 -0.095292
-0.325272 -0.349938 -0.100741
-0.342096 -0.346254 -0.103397
-0.346446 -0.340982 -0.108812
0.157353 -0.114513 -0.400560
0.147462 -0.113040 -0.401377
0.120616 -0.099997 -0.413433
0.102123 -0.092049 -0.420618
0.094697 -0.088722 -0.423649
0.080849 -0.084529 -0.427089
0.073322 -0.080819 -0.430528
0.036146 -0.070816 -0.438463
0.026359 -0.068884 -0.439757
0.013846 -0.067693 -0.440063
0.001208 -0.066094 -0.440813
-0.011444 -0.064384 -0.441630
-0.026377 -0.064642 -0.440166
-0.041310 -0.064852 -0.438735
-0.050072 -0.065531 -0.437305
-0.082045 -0.068412 -0.431618
-0.113441 -0.073011 -0.424092
-0.135341 -0.079370 -0.415408
-0.143669 -0.081429 -0.412479
-0.231960 -0.230892 -0.242613
-0.245475 -0.226756 -0.246053
-0.264236 -0.214012 -0.258415
-0.332482 -0.349410 -0.105475
-0.333485 -0.359330 -0.094611
0.142379 -0.110775 -0.407916
0.130586 -0.104476 -0.413841
0.115933 -0.098585 -0.419052
0.087165 -0.087708 -0.428587
0.066003 -0.080224 -0.435023
0.051441 -0.073855 -0.440778
-0.017884 -0.065807 -0.443980
-0.032917 -0.065745 -0.442822
-0.073956 -0.068396 -0.436658
-0.090886 -0.071470 -0.431958
-0.099688 -0.071981 -0.430698
-0.121929 -0.077174 -0.423240
-0.152008 -0.086158 -0.411049
-0.160506 -0.087700 -0.408699
-0.168184 -0.091989 -0.403421
-0.177955 -0.099393 -0.394600
-0.187431 -0.097706 -0.395656
-0.240050 -0.226644 -0.251161
-0.253822 -0.221343 -0.255827
-0.318991 -0.355496 -0.104691
-0.328445 -0.356228 -0.103125
0.164305 -0.121633 -0.402365
0.153089 -0.116943 -0.406554
0.137314 -0.108516 -0.414454
0.108023 -0.096735 -0.424875
0.100586 -0.093401 -0.427906
0.082558 -0.086322 -0.434138
0.058701 -0.079630 -0.439485
0.044857 -0.075078 -0.443333
0.038018 -0.072974 -0.445070
0.022379 -0.071526 -0.445376
0.009965 -0.070571 -0.445410
-0.002610 -0.069106 -0.445989
-0.056534 -0.069438 -0.441289
-0.065529 -0.069402 -0.440608
-0.108392 -0.075449 -0.430596
-0.130636 -0.080657 -0.423138
-0.141666 -0.083607 -0.419052
-0.232969 -0.232831 -0.249595
-0.247476 -0.224823 -0.257121
-0.261151 -0.219759 -0.261548
-0.269574 -0.223073 -0.257257
0.148334 -0.115500 -0.412207
0.132598 -0.107090 -0.420073
0.121849 -0.103283 -0.423342
0.092727 -0.091565 -0.433695
0.077902 -0.084779 -0.439859
0.067410 -0.081208 -0.442890
-0.009420 -0.069515 -0.449394
-0.019135 -0.067531 -0.450757
-0.027406 -0.069608 -0.447828
-0.039489 -0.069359 -0.447113
-0.048302 -0.069870 -0.445853
-0.080454 -0.072143 -0.440813
-0.088875 -0.073796 -0.438327
-0.117086 -0.078946 -0.430460
-0.150084 -0.088054 -0.417928
-0.158487 -0.089886 -0.415271
-0.166316 -0.093645 -0.410538
-0.174276 -0.097018 -0.406247
-0.183884 -0.105031 -0.396780
-0.312051 -0.363924 -0.105577
-0.316471 -0.358601 -0.110992
-0.320875 -0.353296 -0.116406
-0.326242 -0.357903 -0.110992
0.159567 -0.122928 -0.409550
0.143759 -0.114475 -0.417417
0.113731 -0.100933 -0.429677
0.106737 -0.098737 -0.431482
0.060422 -0.081420 -0.446500
0.050685 -0.079716 -0.447555
0.043500 -0.076704 -0.450246
0.034250 -0.076213 -0.450042
0.018351 -0.074020 -0.451131
0.005810 -0.072672 -0.451574
-0.060429 -0.072067 -0.446874
-0.072035 -0.073135 -0.444763
-0.097835 -0.076461 -0.439076
-0.125854 -0.082215 -0.430596
-0.136680 -0.085782 -0.425829
-0.236886 -0.235507 -0.255520
-0.251317 -0.227697 -0.262808
-0.258220 -0.224899 -0.265294
-0.265298 -0.221358 -0.268563
0.233450 -0.197415 -0.339431
0.130955 -0.108266 -0.427565
0.098767 -0.096647 -0.437543
0.091142 -0.092751 -0.441119
0.073568 -0.086667 -0.446295
0.027548 -0.077044 -0.452970
-0.001023 -0.073034 -0.454979
-0.025533 -0.071658 -0.454503
-0.034250 -0.072448 -0.452936
-0.043641 -0.071284 -0.453447
-0.052239 -0.072392 -0.451540
-0.087007 -0.075695 -0.445138
-0.106505 -0.080012 -0.438905
-0.115106 -0.081121 -0.436998
-0.145397 -0.089235 -0.425760
-0.164307 -0.095780 -0.417144
-0.172321 -0.098946 -0.413092
-0.180179 -0.102688 -0.408392
-0.244871 -0.231557 -0.263728
-0.284565 -0.336952 -0.146477
-0.313629 -0.363134 -0.115793
-0.318038 -0.357821 -0.121208
0.153825 -0.121725 -0.419324
0.149203 -0.117953 -0.423036
0.142401 -0.116389 -0.424160
0.123734 -0.108207 -0.431482
0.112311 -0.102603 -0.436624
0.105352 -0.100475 -0.438361
0.083070 -0.090273 -0.447555
0.066416 -0.086469 -0.450314
0.056036 -0.083087 -0.453141
0.046638 -0.082246 -0.453277
0.014320 -0.076478 -0.456887
-0.007660 -0.073909 -0.457874
-0.016768 -0.073621 -0.457431
-0.067043 -0.075477 -0.451370
-0.078558 -0.076791 -0.448986
-0.095776 -0.078921 -0.445308
-0.131988 -0.087032 -0.433593
-0.153901 -0.093389 -0.424943
-0.181460 -0.111228 -0.403421
-0.233726 -0.241470 -0.258483
-0.262030 -0.227831 -0.270913
-0.283577 -0.344111 -0.143514
-0.285328 -0.350181 -0.136839
-0.289040 -0.361574 -0.124205
-0.306219 -0.370534 -0.113137
0.236550 -0.202614 -0.343245
0.161616 -0.128293 -0.417349
0.137611 -0.114787 -0.429949
0.119054 -0.106786 -0.437067
0.096841 -0.096971 -0.445853
0.039359 -0.081572 -0.457806
0.032656 -0.079782 -0.459168
0.023177 -0.078607 -0.459679
0.007658 -0.077334 -0.459781
-0.023756 -0.073440 -0.461416
-0.038199 -0.074968 -0.458589
-0.056003 -0.075400 -0.456682
-0.085006 -0.078003 -0.451506
-0.121235 -0.085942 -0.439995
-0.140599 -0.090798 -0.433184
-0.170287 -0.101145 -0.419596
-0.238112 -0.239462 -0.264851
-0.251838 -0.234310 -0.269279
-0.274648 -0.344422 -0.148622
-0.279257 -0.351838 -0.140245
-0.284112 -0.358332 -0.132821
-0.287634 -0.370592 -0.119335
-0.288560 -0.380366 -0.108710
0.129486 -0.112494 -0.436215
0.110894 -0.104270 -0.443537
0.103403 -0.100768 -0.446704
0.089878 -0.097372 -0.449258
0.078462 -0.091452 -0.454707
0.061981 -0.088027 -0.457057
0.051490 -0.084302 -0.460224
0.016243 -0.078741 -0.463323
0.000704 -0.077349 -0.463561
-0.011634 -0.076429 -0.463561
-0.047452 -0.076803 -0.460224
-0.073677 -0.078796 -0.455933
-0.094242 -0.079782 -0.453209
-0.102051 -0.083286 -0.448781
-0.110411 -0.085121 -0.446125
-0.129940 -0.089383 -0.439927
-0.145819 -0.095905 -0.431618
-0.159822 -0.098923 -0.427225
-0.175574 -0.106157 -0.418132
-0.180581 -0.109447 -0.414182
-0.185190 -0.114137 -0.408767
-0.244838 -0.240317 -0.267916
-0.257730 -0.238335 -0.269006
-0.275977 -0.368579 -0.127168
-0.283118 -0.365562 -0.129858
0.234593 -0.203400 -0.351419
0.159657 -0.128783 -0.425590
0.151754 -0.124547 -0.429472
0.142292 -0.116397 -0.437475
0.085276 -0.095976 -0.454775
0.071720 -0.092329 -0.457602
0.044602 -0.084672 -0.463629
0.028478 -0.081875 -0.465332
-0.029878 -0.078322 -0.464379
-0.059810 -0.078261 -0.461995
-0.119192 -0.088306 -0.446329
-0.138700 -0.092649 -0.440063
-0.154777 -0.098566 -0.432367
-0.231347 -0.247338 -0.266009
-0.251418 -0.241699 -0.270436
-0.273322 -0.355955 -0.145693
-0.273914 -0.366822 -0.133945
0.135571 -0.117608 -0.440063
0.128080 -0.114237 -0.443060
0.120658 -0.110993 -0.445955
0.106701 -0.106635 -0.449497
0.099223 -0.103133 -0.452630
0.057833 -0.090309 -0.463017
0.037752 -0.085110 -0.466967
0.021654 -0.082315 -0.468635
0.012244 -0.081260 -0.469010
-0.003062 -0.080467 -0.468601
-0.015436 -0.079412 -0.468738
-0.036427 -0.079334 -0.467069
-0.051243 -0.079727 -0.465434
-0.068565 -0.081506 -0.462131
-0.077730 -0.080870 -0.462063
-0.086279 -0.082076 -0.460054
-0.100049 -0.085564 -0.455184
-0.114140 -0.088101 -0.451301
-0.127877 -0.091791 -0.446193
-0.143946 -0.097652 -0.438599
-0.165607 -0.104915 -0.428996
-0.186546 -0.114908 -0.416566
-0.238469 -0.246725 -0.270641
-0.256692 -0.248177 -0.267576
0.235677 -0.203843 -0.360171
0.149648 -0.124625 -0.438122
0.113361 -0.110650 -0.450109
0.092040 -0.102963 -0.456614
0.080812 -0.097526 -0.461518
0.067383 -0.094150 -0.464038
0.050023 -0.088254 -0.468942
-0.024815 -0.080926 -0.470679
-0.043174 -0.079745 -0.470440
-0.063608 -0.081130 -0.467273
-0.095032 -0.085305 -0.460190
-0.160502 -0.104736 -0.433968
-0.171037 -0.109417 -0.428076
-0.178946 -0.112961 -0.423615
-0.224943 -0.253810 -0.268699
-0.245001 -0.248327 -0.272922
-0.255457 -0.255913 -0.263932
0.158324 -0.133430 -0.433832
0.141761 -0.122975 -0.443673
0.104778 -0.106986 -0.457738
0.087481 -0.101676 -0.462029
0.059703 -0.092490 -0.469555
0.042973 -0.088163 -0.472824
0.033569 -0.087196 -0.473097
0.017431 -0.084229 -0.474936
0.008383 -0.084136 -0.474288
-0.007252 -0.082380 -0.474902
-0.031783 -0.080737 -0.474629
-0.103804 -0.088473 -0.460394
-0.120580 -0.091906 -0.455354
-0.131630 -0.094652 -0.451506
-0.139152 -0.099212 -0.445989
-0.147674 -0.100572 -0.443844
-0.155384 -0.104619 -0.438871
-0.232323 -0.252257 -0.274285
-0.249877 -0.256358 -0.268461
-0.264401 -0.375411 -0.139666
0.168235 -0.137628 -0.434581
0.133867 -0.121247 -0.449292
0.126781 -0.118864 -0.451234
0.119385 -0.115663 -0.454060
0.096362 -0.103666 -0.464992
0.075905 -0.097890 -0.469487
0.066023 -0.095812 -0.470883
0.026710 -0.087545 -0.476502
0.001747 -0.085002 -0.477149
-0.016564 -0.084092 -0.476639
-0.049555 -0.083819 -0.474186
-0.058397 -0.084155 -0.473097
-0.067480 -0.083755 -0.472790
-0.072123 -0.087712 -0.468159
-0.081612 -0.086076 -0.469146
-0.090318 -0.086782 -0.467648
-0.112482 -0.091931 -0.460326
-0.166465 -0.110125 -0.436386
-0.177087 -0.114539 -0.430800
-0.184240 -0.120704 -0.423615
-0.217767 -0.263149 -0.268359
-0.238187 -0.256447 -0.273876
0.159917 -0.135033 -0.441119
0.152195 -0.131209 -0.444559
0.111688 -0.114282 -0.459304
0.088865 -0.102636 -0.469861
0.055410 -0.094360 -0.475923
0.039071 -0.091013 -0.478171
0.013567 -0.087102 -0.480214
-0.023246 -0.084737 -0.479703
-0.035586 -0.083643 -0.479839
-0.099221 -0.089524 -0.468295
-0.126594 -0.097045 -0.458010
-0.135439 -0.097313 -0.456989
-0.142898 -0.102074 -0.451268
-0.153426 -0.106615 -0.445546
-0.161373 -0.109906 -0.441392
-0.185340 -0.129930 -0.417996
-0.224851 -0.262790 -0.272718
-0.231909 -0.259593 -0.275544
-0.244201 -0.260075 -0.274012
-0.257622 -0.382906 -0.141607
0.143703 -0.128055 -0.451642
0.135870 -0.123844 -0.455490
0.125151 -0.120021 -0.458692
0.106405 -0.111222 -0.466524
0.099581 -0.109354 -0.467954
0.081433 -0.101725 -0.474595
0.071544 -0.099642 -0.475991
0.048253 -0.093994 -0.480078
0.032207 -0.091358 -0.481576
0.022382 -0.089176 -0.483075
0.006875 -0.087815 -0.483245
-0.004818 -0.088660 -0.481372
-0.011531 -0.086632 -0.482973
-0.044495 -0.086416 -0.480486
-0.053366 -0.086655 -0.479499
-0.062457 -0.086229 -0.479193
-0.071440 -0.086096 -0.478579
-0.107780 -0.093323 -0.467852
-0.116354 -0.094428 -0.465979
-0.172546 -0.115116 -0.439212
-0.182324 -0.122450 -0.430596
-0.212677 -0.264641 -0.276294
-0.237909 -0.263283 -0.275647
-0.253225 -0.390756 -0.138303
-0.257831 -0.398340 -0.129824
0.170517 -0.143565 -0.441732
0.157798 -0.135095 -0.449701
0.150024 -0.131111 -0.453311
0.120483 -0.118588 -0.464209
0.112985 -0.115068 -0.467341
0.064540 -0.099754 -0.479635
0.057370 -0.096777 -0.482223
-0.027171 -0.087310 -0.485288
-0.080078 -0.089623 -0.478409
-0.088631 -0.090771 -0.476468
-0.124864 -0.098400 -0.465332
-0.141698 -0.101644 -0.460496
-0.150041 -0.103526 -0.457772
-0.154848 -0.107284 -0.453379
-0.159665 -0.111050 -0.448952
-0.167724 -0.113979 -0.445172
-0.181354 -0.118261 -0.439485
-0.228524 -0.266413 -0.277622
-0.258701 -0.411158 -0.120833
0.165060 -0.140414 -0.449054
0.142050 -0.129204 -0.459100
0.131052 -0.124711 -0.462948
0.095179 -0.111099 -0.474459
0.087701 -0.107477 -0.477694
0.077392 -0.104325 -0.480180
0.043998 -0.095899 -0.486378
0.028267 -0.094058 -0.487025
0.015420 -0.091785 -0.488353
-0.000138 -0.090222 -0.488728
-0.009909 -0.088004 -0.490294
-0.018209 -0.089911 -0.487570
-0.036429 -0.089081 -0.486923
-0.048422 -0.088916 -0.486106
-0.097322 -0.094139 -0.476468
-0.105903 -0.095199 -0.474629
-0.114488 -0.096251 -0.472790
-0.133632 -0.101552 -0.465571
-0.175124 -0.121884 -0.440472
-0.184741 -0.129830 -0.431209
-0.209258 -0.271528 -0.278303
-0.219669 -0.267504 -0.281743
-0.245579 -0.401684 -0.136737
-0.247279 -0.407926 -0.129926
-0.251271 -0.418122 -0.118756
0.174184 -0.150241 -0.443810
0.155685 -0.135158 -0.458283
0.126374 -0.123270 -0.468465
0.108607 -0.116926 -0.473744
0.101337 -0.113908 -0.476332
0.070334 -0.104311 -0.483960
0.053088 -0.098639 -0.488558
0.037004 -0.095894 -0.490124
0.008691 -0.092386 -0.491486
-0.057415 -0.091402 -0.487025
-0.066423 -0.091189 -0.486480
-0.075313 -0.091309 -0.485629
-0.086667 -0.092965 -0.482904
-0.123389 -0.098950 -0.473471
-0.156226 -0.108083 -0.461041
-0.161067 -0.111753 -0.456716
-0.169415 -0.113669 -0.453992
-0.179823 -0.128918 -0.436931
-0.242837 -0.415871 -0.126589
0.169449 -0.148870 -0.449292
0.163104 -0.140885 -0.457227
0.148437 -0.135069 -0.462165
0.137684 -0.131223 -0.465366
0.119129 -0.123031 -0.472518
0.083463 -0.109580 -0.483790
0.062831 -0.103082 -0.488966
0.030183 -0.096320 -0.493427
0.020143 -0.093501 -0.495573
-0.003942 -0.093190 -0.493904
-0.016330 -0.091993 -0.494109
-0.025281 -0.092031 -0.493325
-0.043036 -0.092476 -0.491384
-0.095423 -0.096112 -0.483143
-0.103984 -0.097215 -0.481236
-0.112476 -0.098538 -0.479124
-0.140458 -0.104024 -0.470985
-0.148106 -0.108145 -0.465945
-0.179037 -0.124105 -0.446432
-0.203449 -0.275702 -0.283411
-0.216481 -0.273549 -0.284637
-0.223410 -0.270868 -0.286885
-0.241962 -0.422481 -0.124375
-0.254122 -0.425873 -0.119744
0.175783 -0.151874 -0.451063
0.170543 -0.146629 -0.456171
0.132927 -0.129607 -0.471053
0.114479 -0.121597 -0.478001
0.096881 -0.115507 -0.482973
0.090058 -0.113569 -0.484471
0.078828 -0.108010 -0.489409
0.045949 -0.100891 -0.494211
0.010437 -0.094148 -0.498365
-0.031990 -0.092528 -0.496526
-0.052198 -0.094463 -0.492780
-0.081840 -0.094832 -0.489920
-0.121666 -0.100300 -0.480793
-0.129723 -0.103007 -0.477251
-0.171331 -0.122629 -0.452936
-0.181703 -0.138146 -0.435636
-0.210084 -0.277071 -0.285931
-0.247962 -0.427556 -0.123217
0.158161 -0.141565 -0.464890
0.143362 -0.135341 -0.470236
0.124753 -0.127052 -0.477456
0.106625 -0.119720 -0.483688
0.071266 -0.106654 -0.494551
0.058623 -0.105152 -0.495096
0.038755 -0.100334 -0.498502
0.026096 -0.098591 -0.499285
0.003855 -0.095111 -0.501124
-0.007811 -0.095954 -0.499251
-0.061213 -0.096862 -0.493802
-0.070217 -0.096641 -0.493257
-0.090546 -0.098115 -0.489988
-0.110483 -0.100768 -0.485527
-0.146398 -0.109353 -0.473403
-0.154365 -0.112445 -0.469453
-0.162166 -0.116133 -0.464924
-0.166925 -0.120107 -0.460292
-0.178395 -0.131710 -0.447045
-0.196222 -0.285097 -0.283139
-0.235610 -0.428005 -0.128496
-0.241319 -0.431210 -0.124647
-0.246660 -0.435970 -0.119130
0.165651 -0.147468 -0.463664
0.150911 -0.141469 -0.468772
0.134595 -0.131366 -0.478103
0.085348 -0.114443 -0.491827
0.051620 -0.105167 -0.498808
0.019307 -0.099040 -0.502554
-0.014358 -0.096964 -0.501907
-0.023390 -0.096757 -0.501362
-0.038319 -0.096718 -0.500170
-0.046938 -0.097662 -0.498433
-0.099225 -0.101478 -0.489988
-0.127994 -0.104352 -0.484539
-0.136176 -0.106659 -0.481406
-0.174066 -0.128845 -0.454775
-0.203393 -0.284532 -0.287668
-0.213835 -0.280433 -0.291107
0.177576 -0.156622 -0.459407
0.145125 -0.137347 -0.477013
0.119904 -0.127746 -0.485016
0.112682 -0.124877 -0.487468
0.101882 -0.120587 -0.491078
0.094767 -0.117899 -0.493325
0.077760 -0.113053 -0.497003
0.064290 -0.109404 -0.499693
0.044320 -0.104344 -0.503371
0.034506 -0.102187 -0.504802
0.012694 -0.099942 -0.505347
-0.002721 -0.098679 -0.505381
-0.055944 -0.100084 -0.499387
-0.076579 -0.100663 -0.497037
-0.085650 -0.100188 -0.496799
-0.108493 -0.102996 -0.491895
-0.116967 -0.104339 -0.489750
-0.144447 -0.111363 -0.480010
-0.152378 -0.114548 -0.475991
-0.160474 -0.117227 -0.472484
-0.191092 -0.286755 -0.290869
-0.207709 -0.282938 -0.293491
0.172623 -0.154706 -0.465400
0.163628 -0.147762 -0.471973
0.156566 -0.145512 -0.473744
0.130186 -0.133210 -0.484505
0.087042 -0.116200 -0.498774
0.070706 -0.113013 -0.500749
0.057465 -0.109906 -0.502929
0.027763 -0.102779 -0.507901
0.006005 -0.100604 -0.508378
-0.009321 -0.099540 -0.508207
-0.027274 -0.099410 -0.506811
-0.065102 -0.102033 -0.500851
-0.094592 -0.102723 -0.497616
-0.165400 -0.123302 -0.469930
-0.173027 -0.127653 -0.464719
-0.176375 -0.136536 -0.455048
-0.189294 -0.284791 -0.297612
-0.197630 -0.288530 -0.292947
0.136465 -0.136252 -0.486174
0.125456 -0.131597 -0.490158
0.118226 -0.128723 -0.492542
0.110886 -0.125529 -0.495301
0.050490 -0.109973 -0.506572
0.021070 -0.103478 -0.510897
-0.000851 -0.100767 -0.511885
-0.018356 -0.101935 -0.509195
-0.033867 -0.100202 -0.509706
-0.042369 -0.101466 -0.507628
-0.050709 -0.103210 -0.505108
-0.080341 -0.103533 -0.502247
-0.103812 -0.104373 -0.499387
-0.123595 -0.107425 -0.494483
-0.131716 -0.109891 -0.491214
-0.139754 -0.112659 -0.487604
-0.174823 -0.134360 -0.461791
-0.204822 -0.287842 -0.297578
0.232078 -0.205648 -0.425658
0.167730 -0.155534 -0.472892
0.103823 -0.125615 -0.498944
0.096710 -0.122923 -0.501158
0.082658 -0.117883 -0.505279
0.066409 -0.114858 -0.507083
0.043451 -0.109833 -0.510421
0.033554 -0.107428 -0.512089
0.011586 -0.104706 -0.513077
-0.059751 -0.105504 -0.506198
-0.071691 -0.105369 -0.505313
-0.086850 -0.104427 -0.505040
-0.109018 -0.109290 -0.498025
-0.148404 -0.116112 -0.487502
-0.152276 -0.122914 -0.480044
-0.160557 -0.124991 -0.477149
-0.178783 -0.143913 -0.455695
-0.185928 -0.291428 -0.299928
0.134977 -0.137757 -0.493155
0.114303 -0.131714 -0.497752
0.089237 -0.121869 -0.505960
0.075346 -0.117163 -0.509706
0.059008 -0.113820 -0.511851
0.052295 -0.111968 -0.513213
0.026658 -0.107584 -0.515631
0.004916 -0.105402 -0.516074
-0.095827 -0.106823 -0.505994
-0.117951 -0.111824 -0.498876
-0.192392 -0.293464 -0.301733
0.146807 -0.147019 -0.488796
0.128307 -0.138947 -0.495675
0.108778 -0.127977 -0.505517
0.044862 -0.110752 -0.518151
0.019956 -0.108240 -0.518662
-0.004436 -0.106921 -0.517947
-0.043145 -0.107064 -0.514507
-0.051534 -0.108653 -0.512123
-0.066483 -0.108416 -0.511102
-0.075672 -0.107579 -0.511170
-0.099927 -0.115172 -0.501158
-0.111250 -0.116911 -0.498365
-0.126264 -0.116333 -0.497684
-0.134483 -0.118510 -0.494722
-0.139278 -0.122204 -0.490431
-0.145383 -0.131411 -0.480248
-0.164694 -0.136436 -0.473335
-0.173525 -0.146907 -0.461586
-0.202105 -0.294985 -0.303844
0.162045 -0.157001 -0.483994
0.154855 -0.154409 -0.486106
0.135961 -0.145467 -0.493836
0.121791 -0.140507 -0.497820
0.102216 -0.129316 -0.507867
0.084584 -0.122846 -0.513145
0.071247 -0.119532 -0.515495
0.035621 -0.112713 -0.519582
0.013352 -0.109134 -0.521420
-0.084688 -0.109867 -0.512260
-0.122279 -0.122257 -0.496084
-0.137916 -0.129324 -0.487332
-0.158361 -0.140414 -0.473982
-0.183433 -0.297749 -0.307011
-0.195350 -0.299797 -0.303844
-0.204230 -0.301556 -0.301256
0.148224 -0.155803 -0.488421
0.141062 -0.153217 -0.490533
0.112895 -0.135964 -0.506164
0.095498 -0.130232 -0.510659
0.077414 -0.122493 -0.517198
0.064225 -0.119502 -0.519207
0.054473 -0.117569 -0.520399
0.028995 -0.113605 -0.522340
0.006774 -0.110076 -0.524145
-0.034579 -0.111236 -0.519377
-0.057980 -0.112434 -0.516108
-0.070379 -0.110890 -0.516687
-0.092833 -0.114831 -0.510625
-0.105537 -0.121503 -0.502554
-0.113587 -0.124223 -0.499046
-0.118283 -0.128198 -0.494483
-0.126605 -0.130114 -0.491759
-0.139784 -0.135615 -0.484880
-0.144695 -0.139042 -0.480861
-0.163373 -0.146289 -0.471700
-0.202745 -0.309990 -0.297067
-0.203754 -0.317931 -0.288656
0.163828 -0.166667 -0.482768
0.156286 -0.163222 -0.485731
0.129304 -0.149328 -0.497923
0.117278 -0.142006 -0.504529
0.105464 -0.135095 -0.510727
0.088109 -0.129373 -0.515222
0.047684 -0.118082 -0.523566
0.022405 -0.114563 -0.525064
-0.043370 -0.114272 -0.519718
-0.079242 -0.113645 -0.517300
-0.097878 -0.120240 -0.508786
-0.106976 -0.128989 -0.498876
-0.120036 -0.134777 -0.491725
-0.128460 -0.136407 -0.489273
-0.150010 -0.143849 -0.479669
-0.189351 -0.304659 -0.308271
-0.198549 -0.305243 -0.306875
0.137069 -0.156124 -0.495811
0.121673 -0.148065 -0.502895
0.080896 -0.128925 -0.519377
0.070642 -0.125755 -0.521795
0.060241 -0.122121 -0.524690
0.040975 -0.118784 -0.526529
0.015591 -0.114876 -0.528402
0.000394 -0.114153 -0.527857
-0.023650 -0.113622 -0.526324
-0.052572 -0.116082 -0.521284
-0.064515 -0.115921 -0.520433
-0.084536 -0.118244 -0.516278
-0.099562 -0.126907 -0.505960
-0.108163 -0.137313 -0.494347
-0.133485 -0.142105 -0.487161
-0.141617 -0.144739 -0.483722
-0.154892 -0.150137 -0.476945
-0.165477 -0.303567 -0.315967
0.162414 -0.176068 -0.481576
0.148681 -0.164830 -0.492099
0.129971 -0.156263 -0.499421
0.111232 -0.147344 -0.507083
0.106412 -0.142763 -0.511442
0.099129 -0.139626 -0.514065
0.092378 -0.137834 -0.515359
0.053625 -0.123115 -0.527346
0.031307 -0.119554 -0.529151
-0.015022 -0.115346 -0.529525
-0.032388 -0.116810 -0.526495
-0.073598 -0.118026 -0.521693
-0.089509 -0.123858 -0.514235
-0.100302 -0.136575 -0.500068
-0.116987 -0.140341 -0.494687
-0.146818 -0.149934 -0.482121
-0.190476 -0.306262 -0.315491
0.191792 -0.197703 -0.465945
0.152984 -0.170545 -0.490873
0.140888 -0.163287 -0.497378
0.123115 -0.156985 -0.502384
0.115457 -0.152997 -0.505891
0.083993 -0.134343 -0.522578
0.074101 -0.132144 -0.524008
0.066599 -0.128235 -0.527414
0.046946 -0.123912 -0.530207
0.021720 -0.120500 -0.531603
0.009119 -0.118717 -0.532352
-0.041031 -0.120272 -0.526393
-0.058642 -0.120971 -0.524145
-0.094250 -0.130233 -0.511442
-0.125291 -0.145047 -0.493359
-0.151732 -0.156123 -0.479533
-0.156597 -0.159827 -0.475276
-0.183097 -0.313318 -0.313277
0.166216 -0.183130 -0.483279
0.157807 -0.177541 -0.488353
0.133944 -0.163837 -0.500545
0.104706 -0.151441 -0.510863
0.097484 -0.148465 -0.513349
0.089808 -0.144261 -0.517062
0.059588 -0.128197 -0.531126
0.040358 -0.124929 -0.532863
0.000035 -0.120977 -0.533476
-0.021286 -0.119700 -0.532931
-0.049937 -0.122956 -0.527074
-0.067478 -0.123839 -0.524656
