ply
format ascii 1.0
element vertex 1638
property float x
property float y
property float z
end_header
-0.006893 -0.109416 -0.511029
0.010007 -0.109416 -0.511029
0.026907 -0.109416 -0.511029
0.043807 -0.109416 -0.511029
0.043807 -0.109416 -0.494129
0.060707 -0.126316 -0.511029
0.060707 -0.109416 -0.511029
0.060707 -0.109416 -0.494129
-0.192793 -0.312216 -0.325129
-0.175893 -0.329116 -0.325129
-0.158993 -0.329116 -0.325129
-0.192793 -0.312216 -0.308229
-0.175893 -0.329116 -0.308229
-0.175893 -0.312216 -0.308229
-0.158993 -0.329116 -0.308229
-0.158993 -0.312216 -0.308229
-0.158993 -0.312216 -0.291329
-0.142093 -0.329116 -0.291329
-0.192793 -0.295316 -0.308229
-0.192793 -0.295316 -0.291329
-0.192793 -0.278416 -0.291329
-0.175893 -0.295316 -0.308229
-0.175893 -0.295316 -0.291329
-0.158993 -0.295316 -0.308229
-0.192793 -0.126316 -0.375829
-0.192793 -0.109416 -0.375829
-0.175893 -0.109416 -0.375829
-0.311093 -0.379816 -0.088529
-0.311093 -0.379816 -0.071629
-0.311093 -0.379816 -0.054729
-0.277293 -0.413616 -0.105429
-0.277293 -0.413616 -0.088529
-0.277293 -0.413616 -0.071629
-0.277293 -0.413616 -0.054729
-0.294193 -0.396716 -0.105429
-0.294193 -0.396716 -0.088529
-0.294193 -0.379816 -0.105429
-0.294193 -0.379816 -0.088529
-0.277293 -0.396716 -0.088529
-0.294193 -0.396716 -0.071629
-0.294193 -0.396716 -0.054729
-0.294193 -0.379816 -0.071629
-0.294193 -0.379816 -0.054729
-0.277293 -0.396716 -0.054729
-0.311093 -0.379816 -0.037829
-0.277293 -0.413616 -0.037829
-0.294193 -0.396716 -0.037829
-0.294193 -0.379816 -0.037829
-0.294193 -0.379816 -0.020929
-0.277293 -0.396716 -0.037829
-0.277293 -0.396716 -0.020929
-0.294193 -0.396716 -0.004029
-0.294193 -0.379816 -0.004029
-0.294193 -0.379816 0.012871
-0.277293 -0.396716 -0.004029
-0.277293 -0.396716 0.012871
-0.277293 -0.379816 0.012871
-0.243493 -0.447416 -0.088529
-0.243493 -0.447416 -0.071629
-0.243493 -0.447416 -0.054729
-0.209693 -0.481216 -0.105429
-0.209693 -0.481216 -0.088529
-0.209693 -0.481216 -0.071629
-0.226593 -0.447416 -0.088529
-0.209693 -0.464316 -0.088529
-0.226593 -0.464316 -0.071629
-0.226593 -0.447416 -0.071629
-0.226593 -0.447416 -0.054729
-0.209693 -0.464316 -0.071629
-0.209693 -0.464316 -0.054729
-0.226593 -0.447416 -0.037829
-0.209693 -0.464316 -0.037829
-0.209693 -0.447416 -0.037829
-0.209693 -0.447416 -0.020929
-0.260393 -0.430516 -0.105429
-0.260393 -0.430516 -0.088529
-0.260393 -0.413616 -0.105429
-0.260393 -0.413616 -0.088529
-0.243493 -0.430516 -0.088529
-0.260393 -0.430516 -0.071629
-0.260393 -0.430516 -0.054729
-0.260393 -0.413616 -0.071629
-0.260393 -0.413616 -0.054729
-0.243493 -0.430516 -0.071629
-0.243493 -0.430516 -0.054729
-0.260393 -0.430516 -0.037829
-0.260393 -0.413616 -0.037829
-0.260393 -0.413616 -0.020929
-0.243493 -0.430516 -0.037829
-0.243493 -0.430516 -0.020929
-0.243493 -0.413616 -0.020929
-0.260393 -0.413616 -0.004029
-0.260393 -0.413616 0.012871
-0.243493 -0.430516 -0.004029
-0.243493 -0.413616 -0.004029
-0.243493 -0.413616 0.012871
-0.260393 -0.396716 -0.004029
-0.260393 -0.396716 0.012871
-0.226593 -0.430516 -0.037829
-0.226593 -0.430516 -0.020929
-0.209693 -0.430516 -0.020929
-0.226593 -0.430516 -0.004029
-0.226593 -0.413616 -0.004029
-0.226593 -0.413616 0.012871
-0.209693 -0.430516 -0.004029
-0.209693 -0.413616 -0.004029
-0.294193 -0.379816 0.029771
-0.277293 -0.379816 0.029771
-0.277293 -0.379816 0.046671
-0.277293 -0.379816 0.063571
-0.243493 -0.413616 0.029771
-0.260393 -0.396716 0.029771
-0.260393 -0.396716 0.046671
-0.260393 -0.379816 0.046671
-0.243493 -0.396716 0.029771
-0.243493 -0.396716 0.046671
-0.260393 -0.379816 0.063571
-0.260393 -0.379816 0.080471
-0.243493 -0.396716 0.063571
-0.243493 -0.379816 0.063571
-0.243493 -0.379816 0.080471
-0.226593 -0.396716 0.046671
-0.226593 -0.396716 0.080471
-0.226593 -0.379816 0.080471
-0.209693 -0.396716 0.080471
-0.260393 -0.379816 0.097371
-0.243493 -0.379816 0.097371
-0.226593 -0.396716 0.097371
-0.226593 -0.379816 0.097371
-0.226593 -0.379816 0.114271
-0.209693 -0.396716 0.097371
-0.209693 -0.379816 0.114271
-0.463193 -0.244616 -0.105429
-0.463193 -0.244616 -0.088529
-0.446293 -0.261516 -0.105429
-0.446293 -0.261516 -0.088529
-0.446293 -0.244616 -0.105429
-0.446293 -0.244616 -0.088529
-0.463193 -0.244616 -0.071629
-0.463193 -0.244616 -0.054729
-0.446293 -0.261516 -0.071629
-0.446293 -0.261516 -0.054729
-0.446293 -0.244616 -0.071629
-0.446293 -0.244616 -0.054729
-0.429393 -0.278416 -0.105429
-0.429393 -0.278416 -0.088529
-0.412493 -0.295316 -0.105429
-0.412493 -0.278416 -0.105429
-0.429393 -0.278416 -0.071629
-0.429393 -0.278416 -0.054729
-0.412493 -0.295316 -0.071629
-0.412493 -0.295316 -0.054729
-0.412493 -0.278416 -0.071629
-0.412493 -0.278416 -0.054729
-0.429393 -0.261516 -0.071629
-0.429393 -0.261516 -0.054729
-0.429393 -0.244616 -0.054729
-0.412493 -0.261516 -0.054729
-0.412493 -0.278416 -0.037829
-0.429393 -0.244616 -0.037829
-0.412493 -0.261516 -0.037829
-0.412493 -0.244616 -0.037829
-0.378693 -0.312216 -0.054729
-0.344893 -0.346016 -0.105429
-0.344893 -0.346016 -0.088529
-0.344893 -0.346016 -0.071629
-0.344893 -0.346016 -0.054729
-0.361793 -0.329116 -0.105429
-0.361793 -0.329116 -0.088529
-0.361793 -0.312216 -0.105429
-0.361793 -0.312216 -0.088529
-0.344893 -0.329116 -0.105429
-0.344893 -0.329116 -0.088529
-0.344893 -0.312216 -0.105429
-0.361793 -0.329116 -0.071629
-0.361793 -0.329116 -0.054729
-0.361793 -0.312216 -0.071629
-0.361793 -0.312216 -0.054729
-0.344893 -0.329116 -0.071629
-0.344893 -0.329116 -0.054729
-0.361793 -0.312216 -0.037829
-0.344893 -0.329116 -0.037829
-0.344893 -0.329116 -0.020929
-0.344893 -0.312216 -0.037829
-0.344893 -0.312216 -0.020929
-0.344893 -0.312216 -0.004029
-0.344893 -0.312216 0.012871
-0.395593 -0.295316 -0.071629
-0.395593 -0.295316 -0.054729
-0.395593 -0.278416 -0.054729
-0.378693 -0.295316 -0.054729
-0.395593 -0.278416 -0.037829
-0.378693 -0.295316 -0.037829
-0.378693 -0.278416 -0.037829
-0.378693 -0.278416 -0.020929
-0.395593 -0.261516 -0.037829
-0.395593 -0.244616 -0.037829
-0.378693 -0.261516 -0.037829
-0.378693 -0.261516 -0.020929
-0.378693 -0.244616 -0.037829
-0.378693 -0.244616 -0.020929
-0.378693 -0.244616 -0.004029
-0.361793 -0.295316 -0.037829
-0.361793 -0.295316 -0.020929
-0.361793 -0.278416 -0.037829
-0.361793 -0.278416 -0.020929
-0.344893 -0.295316 -0.020929
-0.361793 -0.278416 -0.004029
-0.361793 -0.278416 0.012871
-0.344893 -0.295316 -0.004029
-0.344893 -0.295316 0.012871
-0.344893 -0.278416 0.012871
-0.361793 -0.261516 -0.020929
-0.361793 -0.244616 -0.020929
-0.361793 -0.261516 -0.004029
-0.361793 -0.261516 0.012871
-0.361793 -0.244616 -0.004029
-0.361793 -0.244616 0.012871
-0.344893 -0.295316 0.029771
-0.344893 -0.278416 0.029771
-0.344893 -0.278416 0.046671
-0.361793 -0.261516 0.029771
-0.361793 -0.244616 0.029771
-0.361793 -0.244616 0.046671
-0.344893 -0.261516 0.029771
-0.344893 -0.261516 0.046671
-0.344893 -0.244616 0.046671
-0.344893 -0.261516 0.063571
-0.344893 -0.244616 0.063571
-0.344893 -0.244616 0.080471
-0.463193 -0.227716 -0.105429
-0.463193 -0.227716 -0.088529
-0.463193 -0.210816 -0.105429
-0.463193 -0.210816 -0.088529
-0.446293 -0.210816 -0.105429
-0.463193 -0.227716 -0.071629
-0.463193 -0.210816 -0.071629
-0.446293 -0.227716 -0.071629
-0.446293 -0.227716 -0.054729
-0.446293 -0.210816 -0.071629
-0.446293 -0.210816 -0.054729
-0.463193 -0.193916 -0.105429
-0.463193 -0.193916 -0.088529
-0.463193 -0.177016 -0.105429
-0.463193 -0.177016 -0.088529
-0.446293 -0.193916 -0.105429
-0.446293 -0.177016 -0.105429
-0.463193 -0.193916 -0.071629
-0.463193 -0.177016 -0.071629
-0.463193 -0.177016 -0.054729
-0.446293 -0.193916 -0.071629
-0.446293 -0.193916 -0.054729
-0.446293 -0.177016 -0.054729
-0.429393 -0.227716 -0.054729
-0.429393 -0.210816 -0.071629
-0.429393 -0.210816 -0.054729
-0.412493 -0.227716 -0.054729
-0.412493 -0.210816 -0.054729
-0.429393 -0.177016 -0.105429
-0.412493 -0.177016 -0.105429
-0.429393 -0.193916 -0.054729
-0.446293 -0.177016 -0.037829
-0.429393 -0.227716 -0.037829
-0.412493 -0.227716 -0.037829
-0.412493 -0.210816 -0.037829
-0.429393 -0.193916 -0.037829
-0.429393 -0.177016 -0.037829
-0.412493 -0.193916 -0.037829
-0.412493 -0.177016 -0.037829
-0.412493 -0.177016 -0.020929
-0.412493 -0.177016 -0.004029
-0.412493 -0.177016 0.012871
-0.463193 -0.160116 -0.105429
-0.463193 -0.160116 -0.088529
-0.463193 -0.143216 -0.105429
-0.463193 -0.143216 -0.088529
-0.446293 -0.160116 -0.105429
-0.446293 -0.160116 -0.088529
-0.446293 -0.143216 -0.105429
-0.446293 -0.143216 -0.088529
-0.463193 -0.160116 -0.054729
-0.463193 -0.126316 -0.088529
-0.463193 -0.109416 -0.088529
-0.446293 -0.126316 -0.088529
-0.446293 -0.109416 -0.088529
-0.463193 -0.109416 -0.071629
-0.429393 -0.160116 -0.105429
-0.429393 -0.143216 -0.105429
-0.412493 -0.160116 -0.105429
-0.412493 -0.143216 -0.105429
-0.429393 -0.126316 -0.105429
-0.429393 -0.126316 -0.088529
-0.429393 -0.109416 -0.105429
-0.429393 -0.109416 -0.088529
-0.412493 -0.126316 -0.105429
-0.412493 -0.109416 -0.105429
-0.463193 -0.160116 -0.037829
-0.463193 -0.143216 -0.037829
-0.463193 -0.143216 -0.020929
-0.446293 -0.160116 -0.037829
-0.446293 -0.160116 -0.020929
-0.446293 -0.143216 -0.020929
-0.446293 -0.160116 -0.004029
-0.446293 -0.143216 -0.004029
-0.463193 -0.126316 -0.037829
-0.463193 -0.126316 -0.020929
-0.446293 -0.126316 -0.020929
-0.463193 -0.109416 -0.004029
-0.463193 -0.109416 0.012871
-0.446293 -0.126316 -0.004029
-0.446293 -0.126316 0.012871
-0.446293 -0.109416 0.012871
-0.429393 -0.160116 -0.037829
-0.429393 -0.160116 -0.020929
-0.412493 -0.160116 -0.020929
-0.429393 -0.160116 -0.004029
-0.429393 -0.143216 -0.004029
-0.429393 -0.143216 0.012871
-0.412493 -0.160116 -0.004029
-0.412493 -0.160116 0.012871
-0.412493 -0.143216 0.012871
-0.429393 -0.126316 0.012871
-0.395593 -0.227716 -0.037829
-0.395593 -0.210816 -0.037829
-0.395593 -0.210816 -0.020929
-0.378693 -0.227716 -0.037829
-0.378693 -0.227716 -0.020929
-0.378693 -0.210816 -0.020929
-0.378693 -0.227716 -0.004029
-0.378693 -0.227716 0.012871
-0.378693 -0.210816 -0.004029
-0.378693 -0.210816 0.012871
-0.395593 -0.193916 -0.037829
-0.395593 -0.193916 -0.020929
-0.395593 -0.177016 -0.020929
-0.395593 -0.193916 -0.004029
-0.395593 -0.193916 0.012871
-0.395593 -0.177016 -0.004029
-0.395593 -0.177016 0.012871
-0.378693 -0.193916 -0.004029
-0.378693 -0.193916 0.012871
-0.378693 -0.177016 0.012871
-0.361793 -0.227716 0.012871
-0.395593 -0.160116 -0.105429
-0.395593 -0.126316 -0.105429
-0.395593 -0.109416 -0.105429
-0.395593 -0.160116 0.012871
-0.446293 -0.109416 0.029771
-0.429393 -0.143216 0.029771
-0.412493 -0.143216 0.029771
-0.412493 -0.143216 0.046671
-0.429393 -0.126316 0.029771
-0.429393 -0.109416 0.029771
-0.429393 -0.109416 0.046671
-0.412493 -0.126316 0.029771
-0.412493 -0.126316 0.046671
-0.412493 -0.109416 0.029771
-0.412493 -0.109416 0.046671
-0.412493 -0.109416 0.063571
-0.378693 -0.210816 0.029771
-0.395593 -0.177016 0.029771
-0.378693 -0.193916 0.029771
-0.378693 -0.193916 0.046671
-0.378693 -0.177016 0.029771
-0.378693 -0.177016 0.046671
-0.378693 -0.177016 0.063571
-0.378693 -0.177016 0.080471
-0.361793 -0.227716 0.029771
-0.361793 -0.227716 0.046671
-0.361793 -0.210816 0.029771
-0.361793 -0.210816 0.046671
-0.361793 -0.227716 0.063571
-0.361793 -0.210816 0.063571
-0.344893 -0.227716 0.063571
-0.344893 -0.227716 0.080471
-0.344893 -0.210816 0.080471
-0.361793 -0.193916 0.046671
-0.361793 -0.193916 0.063571
-0.361793 -0.193916 0.080471
-0.361793 -0.177016 0.080471
-0.344893 -0.193916 0.080471
-0.344893 -0.177016 0.080471
-0.344893 -0.210816 0.097371
-0.361793 -0.177016 0.097371
-0.344893 -0.193916 0.097371
-0.344893 -0.177016 0.097371
-0.395593 -0.160116 0.029771
-0.395593 -0.160116 0.046671
-0.395593 -0.143216 0.046671
-0.378693 -0.160116 0.046671
-0.395593 -0.160116 0.063571
-0.395593 -0.143216 0.063571
-0.378693 -0.160116 0.063571
-0.378693 -0.160116 0.080471
-0.378693 -0.143216 0.063571
-0.378693 -0.143216 0.080471
-0.395593 -0.126316 0.046671
-0.395593 -0.126316 0.063571
-0.395593 -0.126316 0.080471
-0.395593 -0.109416 0.063571
-0.395593 -0.109416 0.080471
-0.378693 -0.126316 0.080471
-0.378693 -0.109416 0.080471
-0.361793 -0.160116 0.080471
-0.378693 -0.160116 0.097371
-0.378693 -0.143216 0.097371
-0.378693 -0.126316 0.097371
-0.378693 -0.109416 0.097371
-0.361793 -0.160116 0.097371
-0.361793 -0.143216 0.097371
-0.361793 -0.143216 0.114271
-0.344893 -0.160116 0.097371
-0.344893 -0.160116 0.114271
-0.344893 -0.143216 0.114271
-0.361793 -0.126316 0.097371
-0.361793 -0.126316 0.114271
-0.361793 -0.109416 0.097371
-0.361793 -0.109416 0.114271
-0.344893 -0.126316 0.114271
-0.344893 -0.109416 0.114271
-0.344893 -0.126316 0.131171
-0.344893 -0.109416 0.131171
-0.327993 -0.362916 -0.105429
-0.327993 -0.362916 -0.088529
-0.327993 -0.346016 -0.105429
-0.327993 -0.346016 -0.088529
-0.311093 -0.362916 -0.105429
-0.311093 -0.362916 -0.088529
-0.327993 -0.362916 -0.071629
-0.327993 -0.362916 -0.054729
-0.327993 -0.346016 -0.071629
-0.327993 -0.346016 -0.054729
-0.311093 -0.362916 -0.071629
-0.311093 -0.362916 -0.054729
-0.327993 -0.346016 -0.037829
-0.327993 -0.346016 -0.020929
-0.311093 -0.362916 -0.037829
-0.311093 -0.362916 -0.020929
-0.311093 -0.346016 -0.020929
-0.327993 -0.346016 -0.004029
-0.327993 -0.346016 0.012871
-0.311093 -0.362916 -0.004029
-0.311093 -0.362916 0.012871
-0.311093 -0.346016 -0.004029
-0.311093 -0.346016 0.012871
-0.327993 -0.329116 -0.037829
-0.327993 -0.329116 -0.020929
-0.327993 -0.329116 -0.004029
-0.327993 -0.329116 0.012871
-0.327993 -0.312216 0.012871
-0.311093 -0.329116 0.012871
-0.294193 -0.362916 -0.020929
-0.294193 -0.362916 -0.004029
-0.294193 -0.362916 0.012871
-0.311093 -0.346016 0.029771
-0.311093 -0.346016 0.046671
-0.327993 -0.329116 0.029771
-0.327993 -0.312216 0.029771
-0.327993 -0.312216 0.046671
-0.311093 -0.329116 0.029771
-0.311093 -0.329116 0.046671
-0.311093 -0.312216 0.046671
-0.311093 -0.329116 0.063571
-0.311093 -0.312216 0.063571
-0.311093 -0.312216 0.080471
-0.294193 -0.362916 0.029771
-0.294193 -0.362916 0.046671
-0.294193 -0.346016 0.046671
-0.277293 -0.362916 0.046671
-0.294193 -0.346016 0.063571
-0.294193 -0.346016 0.080471
-0.277293 -0.362916 0.063571
-0.277293 -0.362916 0.080471
-0.277293 -0.346016 0.063571
-0.277293 -0.346016 0.080471
-0.294193 -0.329116 0.063571
-0.294193 -0.329116 0.080471
-0.294193 -0.312216 0.080471
-0.277293 -0.329116 0.080471
-0.277293 -0.346016 0.097371
-0.294193 -0.329116 0.097371
-0.294193 -0.312216 0.097371
-0.277293 -0.329116 0.097371
-0.277293 -0.329116 0.114271
-0.277293 -0.312216 0.097371
-0.277293 -0.312216 0.114271
-0.327993 -0.295316 0.029771
-0.327993 -0.295316 0.046671
-0.327993 -0.278416 0.046671
-0.327993 -0.295316 0.063571
-0.327993 -0.278416 0.063571
-0.327993 -0.278416 0.080471
-0.311093 -0.295316 0.063571
-0.311093 -0.295316 0.080471
-0.311093 -0.278416 0.080471
-0.327993 -0.261516 0.063571
-0.327993 -0.261516 0.080471
-0.327993 -0.244616 0.063571
-0.327993 -0.244616 0.080471
-0.311093 -0.261516 0.080471
-0.311093 -0.295316 0.097371
-0.311093 -0.278416 0.097371
-0.327993 -0.244616 0.097371
-0.311093 -0.261516 0.097371
-0.311093 -0.244616 0.097371
-0.311093 -0.244616 0.114271
-0.294193 -0.295316 0.097371
-0.294193 -0.295316 0.114271
-0.294193 -0.278416 0.097371
-0.294193 -0.278416 0.114271
-0.277293 -0.295316 0.114271
-0.277293 -0.278416 0.114271
-0.277293 -0.295316 0.131171
-0.277293 -0.278416 0.131171
-0.294193 -0.261516 0.114271
-0.294193 -0.244616 0.114271
-0.277293 -0.261516 0.114271
-0.294193 -0.244616 0.131171
-0.277293 -0.261516 0.131171
-0.277293 -0.244616 0.131171
-0.260393 -0.362916 0.080471
-0.260393 -0.362916 0.097371
-0.260393 -0.346016 0.097371
-0.260393 -0.346016 0.114271
-0.243493 -0.362916 0.097371
-0.243493 -0.362916 0.114271
-0.243493 -0.346016 0.114271
-0.243493 -0.346016 0.131171
-0.260393 -0.329116 0.114271
-0.260393 -0.312216 0.114271
-0.260393 -0.312216 0.131171
-0.243493 -0.329116 0.131171
-0.243493 -0.312216 0.131171
-0.226593 -0.362916 0.114271
-0.226593 -0.346016 0.114271
-0.226593 -0.362916 0.131171
-0.226593 -0.346016 0.131171
-0.209693 -0.362916 0.131171
-0.209693 -0.346016 0.131171
-0.209693 -0.346016 0.148071
-0.226593 -0.329116 0.131171
-0.226593 -0.329116 0.148071
-0.226593 -0.312216 0.131171
-0.226593 -0.312216 0.148071
-0.209693 -0.329116 0.148071
-0.209693 -0.312216 0.148071
-0.260393 -0.295316 0.131171
-0.260393 -0.278416 0.131171
-0.243493 -0.295316 0.131171
-0.243493 -0.295316 0.148071
-0.243493 -0.278416 0.131171
-0.243493 -0.278416 0.148071
-0.260393 -0.261516 0.131171
-0.260393 -0.261516 0.148071
-0.260393 -0.244616 0.131171
-0.260393 -0.244616 0.148071
-0.243493 -0.261516 0.148071
-0.243493 -0.244616 0.148071
-0.226593 -0.295316 0.148071
-0.226593 -0.278416 0.148071
-0.209693 -0.295316 0.148071
-0.226593 -0.261516 0.148071
-0.327993 -0.227716 0.080471
-0.327993 -0.227716 0.097371
-0.327993 -0.210816 0.097371
-0.311093 -0.227716 0.097371
-0.311093 -0.227716 0.114271
-0.311093 -0.210816 0.114271
-0.327993 -0.193916 0.097371
-0.327993 -0.193916 0.114271
-0.327993 -0.177016 0.097371
-0.327993 -0.177016 0.114271
-0.311093 -0.193916 0.114271
-0.311093 -0.177016 0.114271
-0.311093 -0.193916 0.131171
-0.311093 -0.177016 0.131171
-0.294193 -0.227716 0.114271
-0.294193 -0.210816 0.114271
-0.294193 -0.227716 0.131171
-0.294193 -0.210816 0.131171
-0.277293 -0.227716 0.131171
-0.277293 -0.227716 0.148071
-0.277293 -0.210816 0.131171
-0.277293 -0.210816 0.148071
-0.294193 -0.193916 0.131171
-0.294193 -0.193916 0.148071
-0.294193 -0.177016 0.131171
-0.294193 -0.177016 0.148071
-0.277293 -0.193916 0.148071
-0.277293 -0.177016 0.148071
-0.327993 -0.160116 0.114271
-0.327993 -0.143216 0.114271
-0.327993 -0.160116 0.131171
-0.327993 -0.143216 0.131171
-0.327993 -0.143216 0.148071
-0.311093 -0.160116 0.131171
-0.311093 -0.160116 0.148071
-0.311093 -0.143216 0.131171
-0.311093 -0.143216 0.148071
-0.327993 -0.126316 0.114271
-0.327993 -0.126316 0.131171
-0.327993 -0.109416 0.131171
-0.311093 -0.126316 0.131171
-0.311093 -0.126316 0.148071
-0.311093 -0.109416 0.148071
-0.294193 -0.160116 0.148071
-0.294193 -0.143216 0.148071
-0.277293 -0.160116 0.148071
-0.294193 -0.109416 0.148071
-0.260393 -0.227716 0.148071
-0.260393 -0.210816 0.148071
-0.243493 -0.227716 0.148071
-0.243493 -0.244616 0.164971
-0.226593 -0.278416 0.164971
-0.209693 -0.295316 0.164971
-0.209693 -0.278416 0.164971
-0.226593 -0.261516 0.164971
-0.226593 -0.244616 0.164971
-0.209693 -0.261516 0.164971
-0.209693 -0.261516 0.181871
-0.209693 -0.244616 0.181871
-0.209693 -0.244616 0.198771
-0.277293 -0.177016 0.164971
-0.294193 -0.143216 0.164971
-0.277293 -0.160116 0.164971
-0.277293 -0.143216 0.164971
-0.277293 -0.143216 0.181871
-0.294193 -0.126316 0.164971
-0.294193 -0.109416 0.164971
-0.277293 -0.126316 0.164971
-0.277293 -0.126316 0.181871
-0.277293 -0.109416 0.181871
-0.277293 -0.109416 0.198771
-0.260393 -0.210816 0.164971
-0.243493 -0.227716 0.164971
-0.243493 -0.210816 0.164971
-0.243493 -0.210816 0.181871
-0.260393 -0.193916 0.164971
-0.260393 -0.177016 0.164971
-0.260393 -0.177016 0.181871
-0.243493 -0.193916 0.181871
-0.243493 -0.177016 0.181871
-0.243493 -0.177016 0.198771
-0.226593 -0.227716 0.164971
-0.226593 -0.227716 0.181871
-0.226593 -0.210816 0.181871
-0.209693 -0.227716 0.181871
-0.226593 -0.227716 0.198771
-0.226593 -0.210816 0.198771
-0.209693 -0.227716 0.198771
-0.209693 -0.227716 0.215671
-0.209693 -0.210816 0.198771
-0.209693 -0.210816 0.215671
-0.226593 -0.193916 0.181871
-0.226593 -0.193916 0.198771
-0.226593 -0.177016 0.198771
-0.209693 -0.193916 0.198771
-0.209693 -0.193916 0.215671
-0.209693 -0.177016 0.198771
-0.209693 -0.177016 0.215671
-0.260393 -0.160116 0.164971
-0.260393 -0.160116 0.181871
-0.260393 -0.143216 0.181871
-0.243493 -0.160116 0.181871
-0.260393 -0.143216 0.198771
-0.243493 -0.160116 0.198771
-0.243493 -0.143216 0.198771
-0.260393 -0.126316 0.181871
-0.260393 -0.109416 0.181871
-0.260393 -0.126316 0.198771
-0.260393 -0.109416 0.198771
-0.243493 -0.126316 0.198771
-0.243493 -0.109416 0.198771
-0.243493 -0.109416 0.215671
-0.226593 -0.160116 0.198771
-0.226593 -0.143216 0.198771
-0.209693 -0.160116 0.198771
-0.209693 -0.160116 0.215671
-0.209693 -0.143216 0.215671
-0.226593 -0.126316 0.215671
-0.226593 -0.109416 0.215671
-0.209693 -0.126316 0.215671
-0.209693 -0.109416 0.215671
-0.158993 -0.515016 -0.105429
-0.158993 -0.515016 -0.088529
-0.158993 -0.515016 -0.071629
-0.142093 -0.531916 -0.071629
-0.142093 -0.515016 -0.071629
-0.142093 -0.515016 -0.054729
-0.142093 -0.515016 -0.037829
-0.125193 -0.531916 -0.071629
-0.125193 -0.531916 -0.054729
-0.125193 -0.515016 -0.054729
-0.108293 -0.531916 -0.054729
-0.074493 -0.548816 -0.054729
-0.091393 -0.531916 -0.071629
-0.091393 -0.531916 -0.054729
-0.125193 -0.531916 -0.037829
-0.125193 -0.515016 -0.037829
-0.108293 -0.531916 -0.037829
-0.108293 -0.515016 -0.037829
-0.108293 -0.515016 -0.020929
-0.091393 -0.531916 -0.037829
-0.091393 -0.515016 -0.037829
-0.091393 -0.515016 -0.020929
-0.074493 -0.531916 -0.037829
-0.074493 -0.531916 -0.020929
-0.074493 -0.515016 -0.020929
-0.192793 -0.481216 -0.088529
-0.175893 -0.498116 -0.105429
-0.175893 -0.498116 -0.088529
-0.192793 -0.481216 -0.071629
-0.192793 -0.481216 -0.054729
-0.175893 -0.498116 -0.071629
-0.175893 -0.498116 -0.054729
-0.175893 -0.481216 -0.054729
-0.158993 -0.498116 -0.105429
-0.158993 -0.498116 -0.088529
-0.158993 -0.498116 -0.071629
-0.158993 -0.498116 -0.054729
-0.175893 -0.481216 -0.037829
-0.192793 -0.464316 -0.037829
-0.192793 -0.464316 -0.020929
-0.192793 -0.447416 -0.020929
-0.175893 -0.464316 -0.037829
-0.175893 -0.464316 -0.020929
-0.175893 -0.447416 -0.020929
-0.192793 -0.447416 -0.004029
-0.175893 -0.447416 -0.004029
-0.158993 -0.498116 -0.037829
-0.158993 -0.481216 -0.037829
-0.158993 -0.481216 -0.020929
-0.142093 -0.498116 -0.037829
-0.142093 -0.498116 -0.020929
-0.142093 -0.481216 -0.037829
-0.142093 -0.481216 -0.020929
-0.142093 -0.481216 -0.004029
-0.158993 -0.464316 -0.020929
-0.158993 -0.464316 -0.004029
-0.158993 -0.447416 -0.004029
-0.142093 -0.464316 -0.004029
-0.142093 -0.447416 -0.004029
-0.142093 -0.447416 0.012871
-0.192793 -0.430516 -0.004029
-0.192793 -0.413616 -0.004029
-0.192793 -0.413616 0.012871
-0.175893 -0.430516 -0.004029
-0.175893 -0.430516 0.012871
-0.175893 -0.413616 0.012871
-0.158993 -0.430516 0.012871
-0.125193 -0.498116 -0.037829
-0.125193 -0.498116 -0.020929
-0.125193 -0.481216 -0.020929
-0.108293 -0.498116 -0.020929
-0.125193 -0.481216 -0.004029
-0.108293 -0.498116 -0.004029
-0.108293 -0.481216 -0.004029
-0.108293 -0.481216 0.012871
-0.125193 -0.464316 -0.004029
-0.125193 -0.464316 0.012871
-0.125193 -0.447416 0.012871
-0.108293 -0.464316 -0.004029
-0.108293 -0.464316 0.012871
-0.091393 -0.498116 -0.020929
-0.091393 -0.498116 -0.004029
-0.091393 -0.481216 -0.004029
-0.091393 -0.481216 0.012871
-0.074493 -0.498116 -0.004029
-0.074493 -0.498116 0.012871
-0.142093 -0.447416 0.029771
-0.175893 -0.413616 0.029771
-0.158993 -0.430516 0.029771
-0.158993 -0.413616 0.046671
-0.142093 -0.430516 0.029771
-0.158993 -0.413616 0.063571
-0.158993 -0.413616 0.080471
-0.142093 -0.430516 0.063571
-0.142093 -0.430516 0.080471
-0.142093 -0.413616 0.080471
-0.192793 -0.396716 0.097371
-0.192793 -0.396716 0.114271
-0.192793 -0.379816 0.114271
-0.175893 -0.396716 0.097371
-0.175893 -0.396716 0.114271
-0.192793 -0.379816 0.131171
-0.175893 -0.396716 0.131171
-0.175893 -0.379816 0.131171
-0.175893 -0.379816 0.148071
-0.158993 -0.413616 0.097371
-0.142093 -0.430516 0.097371
-0.142093 -0.413616 0.097371
-0.142093 -0.413616 0.114271
-0.158993 -0.396716 0.097371
-0.158993 -0.396716 0.114271
-0.142093 -0.396716 0.097371
-0.142093 -0.396716 0.114271
-0.158993 -0.396716 0.131171
-0.158993 -0.379816 0.131171
-0.158993 -0.379816 0.148071
-0.142093 -0.396716 0.131171
-0.142093 -0.379816 0.131171
-0.142093 -0.379816 0.148071
-0.108293 -0.481216 0.029771
-0.125193 -0.464316 0.029771
-0.125193 -0.447416 0.029771
-0.125193 -0.447416 0.046671
-0.108293 -0.464316 0.029771
-0.108293 -0.464316 0.046671
-0.108293 -0.447416 0.046671
-0.091393 -0.481216 0.029771
-0.091393 -0.481216 0.046671
-0.074493 -0.498116 0.029771
-0.074493 -0.481216 0.029771
-0.074493 -0.481216 0.046671
-0.091393 -0.464316 0.029771
-0.091393 -0.464316 0.046671
-0.091393 -0.464316 0.080471
-0.074493 -0.464316 0.080471
-0.125193 -0.447416 0.097371
-0.108293 -0.464316 0.097371
-0.108293 -0.447416 0.097371
-0.108293 -0.447416 0.114271
-0.091393 -0.464316 0.097371
-0.091393 -0.464316 0.114271
-0.091393 -0.447416 0.097371
-0.091393 -0.447416 0.114271
-0.074493 -0.464316 0.114271
-0.074493 -0.447416 0.114271
-0.091393 -0.447416 0.131171
-0.125193 -0.430516 0.097371
-0.125193 -0.413616 0.097371
-0.125193 -0.413616 0.114271
-0.108293 -0.430516 0.114271
-0.108293 -0.413616 0.114271
-0.125193 -0.413616 0.131171
-0.125193 -0.413616 0.148071
-0.108293 -0.413616 0.131171
-0.125193 -0.396716 0.114271
-0.108293 -0.396716 0.114271
-0.125193 -0.396716 0.131171
-0.125193 -0.379816 0.131171
-0.125193 -0.379816 0.148071
-0.108293 -0.396716 0.131171
-0.108293 -0.396716 0.148071
-0.108293 -0.379816 0.131171
-0.108293 -0.379816 0.148071
-0.091393 -0.430516 0.114271
-0.091393 -0.413616 0.114271
-0.074493 -0.430516 0.114271
-0.091393 -0.430516 0.131171
-0.074493 -0.430516 0.131171
-0.057593 -0.548816 -0.054729
-0.040693 -0.548816 -0.054729
-0.023793 -0.548816 -0.054729
-0.006893 -0.548816 -0.054729
-0.057593 -0.548816 -0.037829
-0.040693 -0.548816 -0.037829
-0.057593 -0.531916 -0.037829
-0.057593 -0.531916 -0.020929
-0.057593 -0.515016 -0.020929
-0.040693 -0.531916 -0.037829
-0.040693 -0.531916 -0.020929
-0.040693 -0.515016 -0.020929
-0.057593 -0.515016 -0.004029
-0.040693 -0.515016 -0.004029
-0.023793 -0.548816 -0.037829
-0.006893 -0.548816 -0.037829
-0.023793 -0.531916 -0.037829
-0.023793 -0.531916 -0.020929
-0.023793 -0.515016 -0.020929
-0.006893 -0.531916 -0.037829
-0.006893 -0.531916 -0.020929
-0.006893 -0.515016 -0.020929
-0.023793 -0.515016 -0.004029
-0.023793 -0.515016 0.012871
-0.006893 -0.515016 -0.004029
0.010007 -0.548816 -0.054729
0.026907 -0.548816 -0.054729
0.043807 -0.548816 -0.054729
0.060707 -0.548816 -0.054729
0.043807 -0.531916 -0.054729
0.060707 -0.531916 -0.054729
0.010007 -0.548816 -0.037829
0.026907 -0.548816 -0.037829
0.010007 -0.531916 -0.037829
0.010007 -0.531916 -0.020929
0.010007 -0.515016 -0.020929
0.026907 -0.531916 -0.037829
0.026907 -0.531916 -0.020929
0.026907 -0.515016 -0.020929
0.010007 -0.515016 -0.004029
0.026907 -0.515016 -0.004029
0.043807 -0.548816 -0.037829
0.043807 -0.531916 -0.037829
0.043807 -0.531916 -0.020929
0.043807 -0.515016 -0.020929
0.060707 -0.531916 -0.037829
0.060707 -0.531916 -0.020929
0.060707 -0.515016 -0.020929
0.043807 -0.515016 -0.004029
-0.057593 -0.498116 -0.004029
-0.057593 -0.498116 0.012871
0.010007 -0.498116 -0.004029
0.010007 -0.498116 0.012871
0.010007 -0.481216 0.012871
0.026907 -0.498116 -0.004029
0.026907 -0.481216 0.012871
0.043807 -0.498116 -0.020929
0.060707 -0.498116 -0.020929
0.043807 -0.498116 -0.004029
0.043807 -0.481216 -0.004029
0.043807 -0.481216 0.012871
0.060707 -0.498116 -0.004029
0.060707 -0.481216 -0.004029
0.060707 -0.481216 0.012871
0.043807 -0.464316 0.012871
0.060707 -0.464316 0.012871
-0.057593 -0.498116 0.029771
-0.057593 -0.481216 0.029771
-0.057593 -0.481216 0.046671
-0.040693 -0.498116 0.029771
-0.023793 -0.498116 0.029771
-0.006893 -0.498116 0.029771
-0.006893 -0.481216 0.029771
-0.057593 -0.464316 0.097371
-0.057593 -0.464316 0.114271
-0.057593 -0.447416 0.114271
-0.040693 -0.464316 0.097371
-0.040693 -0.464316 0.114271
-0.040693 -0.447416 0.114271
-0.023793 -0.481216 0.097371
-0.023793 -0.481216 0.114271
-0.006893 -0.481216 0.114271
-0.023793 -0.464316 0.114271
-0.006893 -0.464316 0.114271
-0.006893 -0.447416 0.114271
-0.023793 -0.464316 0.131171
-0.023793 -0.447416 0.131171
-0.006893 -0.447416 0.131171
-0.057593 -0.430516 0.131171
0.010007 -0.498116 0.029771
0.010007 -0.481216 0.029771
0.010007 -0.481216 0.046671
0.026907 -0.481216 0.029771
0.026907 -0.464316 0.029771
0.043807 -0.464316 0.029771
0.060707 -0.464316 0.029771
0.060707 -0.447416 0.029771
0.043807 -0.447416 0.080471
0.060707 -0.447416 0.063571
0.060707 -0.447416 0.080471
0.010007 -0.464316 0.114271
0.010007 -0.447416 0.114271
0.026907 -0.464316 0.097371
0.026907 -0.464316 0.114271
0.026907 -0.447416 0.114271
0.010007 -0.447416 0.131171
0.043807 -0.464316 0.097371
0.043807 -0.447416 0.097371
0.043807 -0.447416 0.114271
0.060707 -0.447416 0.097371
0.060707 -0.430516 0.080471
0.010007 -0.430516 0.114271
0.026907 -0.430516 0.114271
0.026907 -0.413616 0.114271
0.010007 -0.430516 0.131171
0.010007 -0.430516 0.148071
0.026907 -0.430516 0.131171
0.026907 -0.413616 0.131171
0.026907 -0.413616 0.148071
0.026907 -0.396716 0.148071
0.026907 -0.379816 0.148071
0.043807 -0.430516 0.097371
0.043807 -0.430516 0.114271
0.043807 -0.413616 0.114271
0.060707 -0.430516 0.097371
0.060707 -0.430516 0.114271
0.060707 -0.413616 0.114271
0.043807 -0.413616 0.131171
0.043807 -0.413616 0.148071
0.060707 -0.413616 0.131171
0.060707 -0.413616 0.148071
0.043807 -0.396716 0.148071
0.060707 -0.396716 0.148071
-0.074493 -0.447416 0.164971
-0.074493 -0.447416 0.181871
-0.091393 -0.447416 0.198771
-0.074493 -0.447416 0.198771
-0.108293 -0.413616 0.164971
-0.108293 -0.413616 0.181871
-0.108293 -0.396716 0.164971
-0.108293 -0.396716 0.181871
-0.108293 -0.379816 0.164971
-0.108293 -0.379816 0.181871
-0.091393 -0.430516 0.164971
-0.091393 -0.430516 0.181871
-0.091393 -0.413616 0.164971
-0.091393 -0.413616 0.181871
-0.074493 -0.430516 0.181871
-0.091393 -0.430516 0.198771
-0.091393 -0.413616 0.198771
-0.091393 -0.413616 0.215671
-0.074493 -0.430516 0.198771
-0.074493 -0.430516 0.215671
-0.074493 -0.413616 0.198771
-0.074493 -0.413616 0.215671
-0.091393 -0.396716 0.164971
-0.091393 -0.396716 0.181871
-0.091393 -0.379816 0.164971
-0.091393 -0.379816 0.181871
-0.091393 -0.396716 0.198771
-0.091393 -0.396716 0.215671
-0.091393 -0.379816 0.198771
-0.074493 -0.396716 0.198771
-0.074493 -0.396716 0.215671
-0.074493 -0.379816 0.198771
-0.074493 -0.379816 0.215671
-0.074493 -0.413616 0.232571
-0.074493 -0.396716 0.232571
-0.074493 -0.379816 0.232571
-0.057593 -0.447416 0.198771
-0.057593 -0.447416 0.215671
-0.040693 -0.447416 0.215671
-0.023793 -0.447416 0.181871
-0.057593 -0.447416 0.232571
-0.057593 -0.430516 0.198771
-0.057593 -0.430516 0.215671
-0.040693 -0.430516 0.215671
-0.006893 -0.430516 0.181871
-0.023793 -0.430516 0.215671
-0.023793 -0.413616 0.215671
-0.006893 -0.430516 0.198771
-0.006893 -0.430516 0.215671
-0.006893 -0.413616 0.198771
-0.006893 -0.413616 0.215671
-0.023793 -0.396716 0.215671
-0.023793 -0.379816 0.215671
-0.006893 -0.396716 0.198771
-0.006893 -0.396716 0.215671
-0.006893 -0.379816 0.198771
-0.006893 -0.379816 0.215671
-0.057593 -0.430516 0.232571
-0.057593 -0.413616 0.232571
-0.040693 -0.430516 0.232571
-0.040693 -0.413616 0.232571
-0.057593 -0.396716 0.232571
-0.057593 -0.379816 0.232571
-0.040693 -0.396716 0.232571
-0.040693 -0.396716 0.249471
-0.040693 -0.379816 0.232571
-0.023793 -0.413616 0.232571
-0.023793 -0.396716 0.232571
-0.023793 -0.379816 0.232571
0.010007 -0.430516 0.164971
0.010007 -0.430516 0.181871
0.010007 -0.413616 0.164971
0.010007 -0.413616 0.181871
0.026907 -0.413616 0.164971
0.010007 -0.430516 0.198771
0.010007 -0.413616 0.198771
0.010007 -0.396716 0.181871
0.010007 -0.379816 0.181871
0.026907 -0.396716 0.164971
0.026907 -0.396716 0.181871
0.026907 -0.379816 0.164971
0.026907 -0.379816 0.181871
0.010007 -0.396716 0.198771
0.010007 -0.379816 0.198771
0.043807 -0.396716 0.164971
0.043807 -0.379816 0.164971
0.043807 -0.379816 0.181871
0.060707 -0.396716 0.164971
0.060707 -0.379816 0.164971
-0.192793 -0.362916 0.131171
-0.192793 -0.362916 0.148071
-0.192793 -0.346016 0.148071
-0.175893 -0.362916 0.148071
-0.175893 -0.346016 0.148071
-0.192793 -0.329116 0.148071
-0.192793 -0.312216 0.148071
-0.175893 -0.329116 0.148071
-0.158993 -0.362916 0.148071
-0.158993 -0.346016 0.148071
-0.142093 -0.362916 0.148071
-0.125193 -0.362916 0.148071
-0.192793 -0.312216 0.164971
-0.175893 -0.329116 0.164971
-0.175893 -0.312216 0.164971
-0.158993 -0.346016 0.164971
-0.142093 -0.362916 0.164971
-0.142093 -0.346016 0.164971
-0.158993 -0.329116 0.164971
-0.158993 -0.312216 0.164971
-0.142093 -0.329116 0.164971
-0.142093 -0.312216 0.164971
-0.192793 -0.295316 0.164971
-0.192793 -0.278416 0.164971
-0.192793 -0.278416 0.181871
-0.175893 -0.295316 0.164971
-0.175893 -0.278416 0.164971
-0.175893 -0.278416 0.181871
-0.192793 -0.261516 0.181871
-0.192793 -0.244616 0.181871
-0.192793 -0.261516 0.198771
-0.192793 -0.244616 0.198771
-0.192793 -0.244616 0.215671
-0.175893 -0.261516 0.198771
-0.175893 -0.244616 0.198771
-0.175893 -0.244616 0.215671
-0.158993 -0.295316 0.164971
-0.158993 -0.295316 0.181871
-0.158993 -0.278416 0.181871
-0.142093 -0.295316 0.181871
-0.142093 -0.278416 0.181871
-0.158993 -0.278416 0.198771
-0.142093 -0.278416 0.198771
-0.158993 -0.261516 0.198771
-0.158993 -0.244616 0.198771
-0.158993 -0.244616 0.215671
-0.142093 -0.261516 0.198771
-0.142093 -0.244616 0.215671
-0.125193 -0.362916 0.164971
-0.125193 -0.346016 0.164971
-0.108293 -0.362916 0.164971
-0.108293 -0.362916 0.181871
-0.108293 -0.346016 0.164971
-0.108293 -0.346016 0.181871
-0.125193 -0.329116 0.164971
-0.125193 -0.312216 0.164971
-0.125193 -0.312216 0.181871
-0.108293 -0.329116 0.181871
-0.108293 -0.312216 0.181871
-0.091393 -0.362916 0.164971
-0.091393 -0.362916 0.181871
-0.091393 -0.346016 0.181871
-0.091393 -0.362916 0.198771
-0.091393 -0.346016 0.198771
-0.074493 -0.362916 0.198771
-0.074493 -0.362916 0.215671
-0.074493 -0.346016 0.198771
-0.074493 -0.346016 0.215671
-0.091393 -0.329116 0.181871
-0.091393 -0.312216 0.181871
-0.091393 -0.329116 0.198771
-0.091393 -0.312216 0.198771
-0.074493 -0.329116 0.198771
-0.074493 -0.329116 0.215671
-0.074493 -0.312216 0.198771
-0.074493 -0.312216 0.215671
-0.074493 -0.362916 0.232571
-0.125193 -0.295316 0.181871
-0.125193 -0.278416 0.181871
-0.108293 -0.295316 0.181871
-0.108293 -0.278416 0.181871
-0.125193 -0.278416 0.198771
-0.108293 -0.278416 0.198771
-0.125193 -0.261516 0.198771
-0.125193 -0.261516 0.215671
-0.125193 -0.244616 0.215671
-0.108293 -0.261516 0.198771
-0.108293 -0.261516 0.215671
-0.108293 -0.244616 0.215671
-0.091393 -0.295316 0.181871
-0.091393 -0.278416 0.181871
-0.074493 -0.278416 0.181871
-0.091393 -0.295316 0.198771
-0.091393 -0.278416 0.198771
-0.074493 -0.295316 0.198771
-0.074493 -0.295316 0.215671
-0.074493 -0.278416 0.198771
-0.091393 -0.261516 0.198771
-0.091393 -0.244616 0.198771
-0.091393 -0.244616 0.215671
-0.074493 -0.261516 0.198771
-0.074493 -0.261516 0.215671
-0.074493 -0.244616 0.198771
-0.074493 -0.244616 0.215671
-0.192793 -0.227716 0.215671
-0.192793 -0.210816 0.215671
-0.175893 -0.227716 0.215671
-0.175893 -0.210816 0.215671
-0.192793 -0.193916 0.215671
-0.192793 -0.177016 0.215671
-0.175893 -0.193916 0.215671
-0.175893 -0.177016 0.215671
-0.158993 -0.227716 0.215671
-0.158993 -0.210816 0.215671
-0.142093 -0.227716 0.215671
-0.142093 -0.210816 0.215671
-0.158993 -0.193916 0.215671
-0.158993 -0.177016 0.215671
-0.142093 -0.193916 0.215671
-0.142093 -0.210816 0.232571
-0.158993 -0.193916 0.232571
-0.158993 -0.177016 0.232571
-0.142093 -0.193916 0.232571
-0.142093 -0.177016 0.232571
-0.192793 -0.160116 0.215671
-0.192793 -0.143216 0.215671
-0.175893 -0.160116 0.215671
-0.175893 -0.143216 0.215671
-0.192793 -0.126316 0.215671
-0.192793 -0.109416 0.215671
-0.175893 -0.109416 0.215671
-0.158993 -0.109416 0.215671
-0.175893 -0.143216 0.232571
-0.192793 -0.126316 0.232571
-0.192793 -0.109416 0.232571
-0.175893 -0.126316 0.232571
-0.175893 -0.109416 0.232571
-0.158993 -0.160116 0.232571
-0.158993 -0.143216 0.232571
-0.142093 -0.160116 0.232571
-0.142093 -0.143216 0.232571
-0.158993 -0.126316 0.232571
-0.158993 -0.109416 0.232571
-0.142093 -0.126316 0.232571
-0.142093 -0.109416 0.232571
-0.125193 -0.227716 0.215671
-0.125193 -0.210816 0.215671
-0.108293 -0.227716 0.215671
-0.108293 -0.210816 0.215671
-0.091393 -0.227716 0.215671
-0.091393 -0.210816 0.215671
-0.074493 -0.227716 0.215671
-0.074493 -0.210816 0.215671
-0.125193 -0.193916 0.232571
-0.125193 -0.177016 0.232571
-0.108293 -0.193916 0.232571
-0.108293 -0.177016 0.232571
-0.108293 -0.177016 0.249471
-0.091393 -0.210816 0.232571
-0.074493 -0.210816 0.232571
-0.091393 -0.193916 0.232571
-0.091393 -0.177016 0.232571
-0.091393 -0.177016 0.249471
-0.074493 -0.193916 0.232571
-0.074493 -0.193916 0.249471
-0.074493 -0.177016 0.249471
-0.108293 -0.109416 0.215671
-0.091393 -0.109416 0.215671
-0.074493 -0.109416 0.215671
-0.125193 -0.160116 0.232571
-0.125193 -0.160116 0.249471
-0.125193 -0.143216 0.232571
-0.125193 -0.143216 0.249471
-0.108293 -0.160116 0.232571
-0.108293 -0.160116 0.249471
-0.108293 -0.143216 0.232571
-0.108293 -0.143216 0.249471
-0.125193 -0.126316 0.232571
-0.125193 -0.109416 0.232571
-0.108293 -0.126316 0.232571
-0.108293 -0.109416 0.232571
-0.091393 -0.160116 0.249471
-0.091393 -0.143216 0.232571
-0.091393 -0.143216 0.249471
-0.074493 -0.160116 0.249471
-0.074493 -0.143216 0.232571
-0.074493 -0.143216 0.249471
-0.091393 -0.126316 0.232571
-0.091393 -0.109416 0.232571
-0.074493 -0.126316 0.232571
-0.074493 -0.109416 0.232571
-0.057593 -0.346016 0.215671
-0.057593 -0.329116 0.215671
-0.057593 -0.312216 0.215671
-0.040693 -0.312216 0.215671
-0.023793 -0.362916 0.215671
-0.023793 -0.346016 0.215671
-0.006893 -0.362916 0.198771
-0.006893 -0.362916 0.215671
-0.006893 -0.346016 0.198771
-0.006893 -0.346016 0.215671
-0.023793 -0.329116 0.215671
-0.023793 -0.312216 0.215671
-0.006893 -0.329116 0.198771
-0.006893 -0.329116 0.215671
-0.006893 -0.312216 0.198771
-0.006893 -0.312216 0.215671
-0.057593 -0.362916 0.232571
-0.057593 -0.346016 0.232571
-0.040693 -0.362916 0.232571
-0.040693 -0.346016 0.232571
-0.040693 -0.346016 0.249471
-0.057593 -0.329116 0.232571
-0.057593 -0.312216 0.232571
-0.040693 -0.329116 0.232571
-0.040693 -0.312216 0.232571
-0.023793 -0.362916 0.232571
-0.023793 -0.346016 0.232571
-0.023793 -0.329116 0.232571
-0.023793 -0.312216 0.232571
-0.057593 -0.295316 0.215671
-0.057593 -0.278416 0.215671
-0.057593 -0.261516 0.215671
-0.057593 -0.244616 0.215671
-0.023793 -0.295316 0.215671
-0.023793 -0.278416 0.215671
-0.006893 -0.295316 0.198771
-0.006893 -0.295316 0.215671
-0.006893 -0.278416 0.198771
-0.006893 -0.278416 0.215671
-0.023793 -0.261516 0.215671
-0.023793 -0.244616 0.215671
-0.006893 -0.261516 0.198771
-0.006893 -0.261516 0.215671
-0.006893 -0.244616 0.215671
-0.057593 -0.295316 0.232571
-0.040693 -0.295316 0.232571
-0.040693 -0.278416 0.232571
-0.057593 -0.244616 0.232571
-0.040693 -0.261516 0.232571
-0.040693 -0.244616 0.232571
-0.023793 -0.295316 0.232571
-0.023793 -0.278416 0.232571
-0.023793 -0.261516 0.232571
-0.023793 -0.244616 0.232571
0.010007 -0.362916 0.181871
0.026907 -0.362916 0.181871
0.026907 -0.346016 0.181871
0.010007 -0.362916 0.198771
0.010007 -0.346016 0.198771
0.026907 -0.346016 0.198771
0.026907 -0.329116 0.181871
0.026907 -0.312216 0.181871
0.010007 -0.329116 0.198771
0.010007 -0.312216 0.198771
0.026907 -0.329116 0.198771
0.026907 -0.312216 0.198771
0.043807 -0.362916 0.181871
0.043807 -0.346016 0.181871
0.060707 -0.362916 0.164971
0.060707 -0.362916 0.181871
0.060707 -0.346016 0.181871
0.043807 -0.329116 0.181871
0.043807 -0.312216 0.181871
0.060707 -0.329116 0.181871
0.060707 -0.312216 0.181871
0.043807 -0.312216 0.198771
0.060707 -0.312216 0.198771
0.010007 -0.295316 0.198771
0.010007 -0.278416 0.198771
0.026907 -0.295316 0.198771
0.026907 -0.278416 0.198771
0.026907 -0.278416 0.215671
0.010007 -0.261516 0.215671
0.010007 -0.244616 0.215671
0.026907 -0.261516 0.215671
0.026907 -0.244616 0.215671
0.043807 -0.295316 0.198771
0.043807 -0.278416 0.198771
0.043807 -0.278416 0.215671
0.060707 -0.295316 0.198771
0.060707 -0.278416 0.198771
0.060707 -0.278416 0.215671
0.043807 -0.261516 0.215671
0.026907 -0.244616 0.232571
0.043807 -0.261516 0.232571
0.043807 -0.244616 0.232571
0.060707 -0.261516 0.232571
0.060707 -0.244616 0.232571
-0.057593 -0.227716 0.215671
-0.006893 -0.227716 0.215671
-0.057593 -0.227716 0.232571
-0.057593 -0.210816 0.232571
-0.057593 -0.210816 0.249471
-0.040693 -0.227716 0.232571
-0.040693 -0.210816 0.232571
-0.040693 -0.210816 0.249471
-0.057593 -0.193916 0.232571
-0.057593 -0.193916 0.249471
-0.057593 -0.177016 0.249471
-0.040693 -0.193916 0.249471
-0.040693 -0.177016 0.249471
-0.023793 -0.227716 0.232571
-0.023793 -0.210816 0.232571
-0.023793 -0.210816 0.249471
-0.006893 -0.227716 0.232571
-0.006893 -0.210816 0.232571
-0.006893 -0.210816 0.249471
-0.023793 -0.193916 0.249471
-0.023793 -0.177016 0.249471
-0.006893 -0.193916 0.249471
-0.006893 -0.177016 0.249471
-0.006893 -0.177016 0.266371
-0.057593 -0.109416 0.215671
-0.040693 -0.109416 0.215671
-0.023793 -0.109416 0.215671
-0.057593 -0.160116 0.249471
-0.057593 -0.143216 0.232571
-0.057593 -0.143216 0.249471
-0.040693 -0.160116 0.249471
-0.040693 -0.143216 0.232571
-0.057593 -0.126316 0.232571
-0.057593 -0.109416 0.232571
-0.040693 -0.126316 0.232571
-0.040693 -0.109416 0.232571
-0.023793 -0.160116 0.249471
-0.023793 -0.143216 0.232571
-0.023793 -0.143216 0.249471
-0.006893 -0.160116 0.249471
-0.006893 -0.143216 0.249471
-0.023793 -0.126316 0.232571
-0.023793 -0.109416 0.232571
-0.006893 -0.126316 0.232571
-0.006893 -0.126316 0.249471
-0.006893 -0.109416 0.232571
0.010007 -0.227716 0.215671
0.010007 -0.227716 0.232571
0.010007 -0.210816 0.232571
0.010007 -0.210816 0.249471
0.026907 -0.227716 0.232571
0.026907 -0.210816 0.232571
0.010007 -0.193916 0.249471
0.010007 -0.177016 0.249471
0.026907 -0.193916 0.249471
0.026907 -0.177016 0.249471
0.010007 -0.177016 0.266371
0.026907 -0.177016 0.266371
0.043807 -0.227716 0.232571
0.043807 -0.210816 0.232571
0.060707 -0.227716 0.232571
0.060707 -0.210816 0.232571
0.060707 -0.210816 0.249471
0.043807 -0.193916 0.249471
0.043807 -0.177016 0.249471
0.060707 -0.193916 0.249471
0.060707 -0.177016 0.249471
0.043807 -0.177016 0.266371
0.060707 -0.177016 0.266371
0.010007 -0.160116 0.249471
0.010007 -0.143216 0.249471
0.026907 -0.160116 0.249471
0.026907 -0.143216 0.249471
0.010007 -0.160116 0.266371
0.026907 -0.160116 0.266371
0.010007 -0.126316 0.232571
0.010007 -0.126316 0.249471
0.010007 -0.109416 0.232571
0.026907 -0.126316 0.232571
0.026907 -0.126316 0.249471
0.026907 -0.109416 0.232571
0.043807 -0.143216 0.249471
0.060707 -0.143216 0.249471
0.043807 -0.160116 0.266371
0.060707 -0.160116 0.266371
0.060707 -0.143216 0.266371
0.043807 -0.126316 0.249471
0.043807 -0.109416 0.232571
0.060707 -0.126316 0.249471
0.060707 -0.109416 0.232571
0.060707 -0.109416 0.249471
-0.395593 -0.092516 -0.122329
-0.395593 -0.075616 -0.122329
-0.378693 -0.092516 -0.139229
-0.378693 -0.092516 -0.122329
-0.378693 -0.075616 -0.139229
-0.378693 -0.075616 -0.122329
-0.395593 -0.058716 -0.122329
-0.395593 -0.041816 -0.122329
-0.378693 -0.058716 -0.139229
-0.378693 -0.058716 -0.122329
-0.378693 -0.041816 -0.139229
-0.378693 -0.041816 -0.122329
-0.361793 -0.092516 -0.156129
-0.361793 -0.075616 -0.156129
-0.344893 -0.092516 -0.173029
-0.344893 -0.092516 -0.156129
-0.344893 -0.075616 -0.173029
-0.344893 -0.075616 -0.156129
-0.361793 -0.092516 -0.139229
-0.361793 -0.075616 -0.139229
-0.361793 -0.058716 -0.156129
-0.361793 -0.041816 -0.156129
-0.344893 -0.058716 -0.173029
-0.344893 -0.058716 -0.156129
-0.344893 -0.041816 -0.173029
-0.344893 -0.041816 -0.156129
-0.361793 -0.058716 -0.139229
-0.361793 -0.041816 -0.139229
-0.395593 -0.024916 -0.122329
-0.395593 -0.008016 -0.122329
-0.378693 -0.024916 -0.139229
-0.378693 -0.024916 -0.122329
-0.378693 -0.008016 -0.122329
-0.378693 0.008884 -0.122329
-0.378693 0.025784 -0.122329
-0.361793 -0.024916 -0.156129
-0.344893 -0.024916 -0.173029
-0.344893 -0.024916 -0.156129
-0.344893 -0.008016 -0.156129
-0.361793 -0.024916 -0.139229
-0.361793 -0.008016 -0.139229
-0.344893 -0.008016 -0.139229
-0.344893 0.008884 -0.156129
-0.361793 0.008884 -0.139229
-0.361793 0.008884 -0.122329
-0.361793 0.025784 -0.139229
-0.361793 0.025784 -0.122329
-0.344893 0.008884 -0.139229
-0.344893 0.025784 -0.139229
-0.378693 0.042684 -0.122329
-0.378693 0.059584 -0.122329
-0.361793 0.042684 -0.122329
-0.361793 0.059584 -0.122329
-0.344893 0.042684 -0.139229
-0.344893 0.042684 -0.122329
-0.344893 0.059584 -0.139229
-0.344893 0.059584 -0.122329
-0.361793 0.076484 -0.122329
-0.361793 0.093384 -0.122329
-0.344893 0.076484 -0.122329
-0.344893 0.093384 -0.122329
-0.344893 0.110284 -0.122329
-0.277293 -0.092516 -0.257529
-0.277293 -0.075616 -0.257529
-0.277293 -0.058716 -0.257529
-0.243493 -0.092516 -0.325129
-0.226593 -0.092516 -0.358929
-0.209693 -0.092516 -0.375829
-0.209693 -0.092516 -0.358929
-0.209693 -0.075616 -0.358929
-0.226593 -0.092516 -0.342029
-0.226593 -0.092516 -0.325129
-0.226593 -0.075616 -0.325129
-0.209693 -0.092516 -0.342029
-0.209693 -0.075616 -0.342029
-0.209693 -0.075616 -0.325129
-0.226593 -0.058716 -0.325129
-0.209693 -0.058716 -0.342029
-0.209693 -0.058716 -0.325129
-0.209693 -0.041816 -0.325129
-0.260393 -0.092516 -0.291329
-0.243493 -0.092516 -0.308229
-0.243493 -0.092516 -0.291329
-0.243493 -0.075616 -0.308229
-0.243493 -0.075616 -0.291329
-0.260393 -0.092516 -0.274429
-0.260393 -0.075616 -0.274429
-0.260393 -0.075616 -0.257529
-0.243493 -0.075616 -0.274429
-0.243493 -0.058716 -0.291329
-0.260393 -0.058716 -0.274429
-0.260393 -0.058716 -0.257529
-0.260393 -0.041816 -0.257529
-0.243493 -0.058716 -0.274429
-0.243493 -0.041816 -0.274429
-0.243493 -0.041816 -0.257529
-0.226593 -0.075616 -0.308229
-0.226593 -0.058716 -0.308229
-0.226593 -0.058716 -0.291329
-0.226593 -0.041816 -0.308229
-0.226593 -0.041816 -0.291329
-0.209693 -0.058716 -0.308229
-0.209693 -0.041816 -0.308229
-0.209693 -0.041816 -0.291329
-0.226593 -0.041816 -0.274429
-0.260393 -0.024916 -0.257529
-0.243493 -0.024916 -0.274429
-0.243493 -0.024916 -0.257529
-0.243493 -0.008016 -0.257529
-0.209693 -0.024916 -0.308229
-0.209693 -0.024916 -0.291329
-0.209693 -0.008016 -0.291329
-0.226593 -0.024916 -0.274429
-0.226593 -0.024916 -0.257529
-0.226593 -0.008016 -0.274429
-0.226593 -0.008016 -0.257529
-0.209693 -0.024916 -0.274429
-0.209693 -0.008016 -0.274429
-0.209693 -0.008016 -0.257529
-0.226593 0.008884 -0.257529
-0.209693 0.008884 -0.257529
-0.209693 0.025784 -0.257529
-0.327993 -0.092516 -0.206829
-0.327993 -0.092516 -0.189929
-0.327993 -0.075616 -0.189929
-0.311093 -0.092516 -0.206829
-0.311093 -0.075616 -0.206829
-0.311093 -0.075616 -0.189929
-0.327993 -0.058716 -0.189929
-0.327993 -0.041816 -0.189929
-0.311093 -0.058716 -0.206829
-0.311093 -0.058716 -0.189929
-0.311093 -0.041816 -0.206829
-0.311093 -0.041816 -0.189929
-0.294193 -0.092516 -0.240629
-0.294193 -0.092516 -0.223729
-0.294193 -0.075616 -0.223729
-0.277293 -0.092516 -0.240629
-0.277293 -0.075616 -0.240629
-0.294193 -0.075616 -0.206829
-0.294193 -0.058716 -0.223729
-0.294193 -0.041816 -0.223729
-0.277293 -0.058716 -0.240629
-0.277293 -0.058716 -0.223729
-0.277293 -0.041816 -0.240629
-0.277293 -0.041816 -0.223729
-0.294193 -0.058716 -0.206829
-0.294193 -0.041816 -0.206829
-0.327993 -0.092516 -0.173029
-0.327993 -0.075616 -0.173029
-0.327993 -0.058716 -0.173029
-0.327993 -0.041816 -0.173029
-0.311093 -0.024916 -0.189929
-0.311093 -0.008016 -0.189929
-0.277293 -0.024916 -0.240629
-0.277293 -0.024916 -0.223729
-0.277293 -0.008016 -0.223729
-0.294193 -0.024916 -0.206829
-0.294193 -0.024916 -0.189929
-0.294193 -0.008016 -0.206829
-0.294193 -0.008016 -0.189929
-0.277293 -0.024916 -0.206829
-0.277293 -0.008016 -0.206829
-0.294193 0.008884 -0.189929
-0.294193 0.025784 -0.189929
-0.277293 0.008884 -0.206829
-0.277293 0.008884 -0.189929
-0.277293 0.025784 -0.189929
-0.327993 -0.024916 -0.173029
-0.327993 -0.024916 -0.156129
-0.327993 -0.008016 -0.173029
-0.327993 -0.008016 -0.156129
-0.311093 -0.008016 -0.173029
-0.327993 0.008884 -0.173029
-0.327993 0.008884 -0.156129
-0.327993 0.025784 -0.173029
-0.327993 0.025784 -0.156129
-0.311093 0.008884 -0.173029
-0.311093 0.025784 -0.173029
-0.311093 0.025784 -0.156129
-0.294193 0.008884 -0.173029
-0.294193 0.025784 -0.173029
-0.260393 -0.041816 -0.240629
-0.260393 -0.024916 -0.240629
-0.260393 -0.024916 -0.223729
