ply
format ascii 1.0
element vertex 1755
property float x
property float y
property float z
end_header
0.128607 0.260984 -0.069729
0.128607 0.268884 -0.061829
0.104907 0.276784 -0.069729
0.104907 0.284684 -0.061829
0.112807 0.276784 -0.069729
0.112807 0.284684 -0.061829
0.104907 0.292584 -0.053929
0.104907 0.300484 -0.053929
0.104907 0.300484 -0.046029
0.112807 0.292584 -0.053929
0.112807 0.300484 -0.046029
0.120707 0.276784 -0.061829
0.128607 0.276784 -0.061829
0.120707 0.284684 -0.053929
0.128607 0.284684 -0.053929
0.120707 0.292584 -0.046029
0.120707 0.300484 -0.046029
0.128607 0.292584 -0.046029
0.128607 0.300484 -0.046029
0.010107 0.308384 -0.061829
0.018007 0.308384 -0.061829
0.018007 0.316284 -0.061829
0.010107 0.316284 -0.053929
0.018007 0.316284 -0.053929
0.010107 0.324184 -0.053929
0.010107 0.324184 -0.046029
0.010107 0.332084 -0.046029
0.018007 0.324184 -0.046029
0.025907 0.308384 -0.061829
0.025907 0.316284 -0.061829
0.033807 0.308384 -0.061829
0.033807 0.308384 -0.046029
0.033807 0.316284 -0.053929
0.025907 0.324184 -0.053929
0.025907 0.324184 -0.046029
0.033807 0.324184 -0.053929
0.033807 0.324184 -0.046029
0.049607 0.308384 -0.061829
0.041707 0.308384 -0.053929
0.041707 0.316284 -0.053929
0.049607 0.308384 -0.053929
0.049607 0.316284 -0.046029
0.049607 0.324184 -0.046029
0.057507 0.308384 -0.053929
0.057507 0.316284 -0.046029
0.065407 0.324184 -0.046029
0.018007 0.332084 -0.038129
0.025907 0.332084 -0.038129
0.033807 0.332084 -0.038129
0.010107 0.339984 -0.038129
0.010107 0.347884 -0.038129
0.010107 0.347884 -0.030229
0.018007 0.339984 -0.038129
0.018007 0.347884 -0.030229
0.010107 0.355784 -0.030229
0.010107 0.355784 -0.022329
0.010107 0.363684 -0.022329
0.018007 0.355784 -0.022329
0.018007 0.363684 -0.014429
0.025907 0.339984 -0.030229
0.025907 0.347884 -0.030229
0.033807 0.339984 -0.030229
0.033807 0.347884 -0.022329
0.025907 0.355784 -0.022329
0.025907 0.363684 -0.014429
0.033807 0.355784 -0.022329
0.033807 0.363684 -0.014429
0.041707 0.332084 -0.038129
0.049607 0.332084 -0.038129
0.057507 0.324184 -0.038129
0.057507 0.332084 -0.038129
0.065407 0.324184 -0.038129
0.065407 0.332084 -0.030229
0.041707 0.339984 -0.030229
0.049607 0.339984 -0.030229
0.049607 0.347884 -0.030229
0.041707 0.347884 -0.022329
0.049607 0.347884 -0.022329
0.041707 0.355784 -0.022329
0.041707 0.363684 -0.014429
0.049607 0.355784 -0.014429
0.049607 0.363684 -0.014429
0.057507 0.339984 -0.030229
0.065407 0.339984 -0.030229
0.057507 0.347884 -0.022329
0.065407 0.347884 -0.022329
0.057507 0.355784 -0.022329
0.065407 0.355784 -0.014429
0.065407 0.363684 -0.014429
0.057507 0.363684 -0.006529
0.065407 0.363684 -0.006529
0.010107 0.371584 -0.014429
0.010107 0.371584 -0.006529
0.018007 0.371584 -0.006529
0.018007 0.379484 0.001371
0.010107 0.387384 0.001371
0.010107 0.395284 0.009271
0.018007 0.387384 0.009271
0.018007 0.395284 0.009271
0.025907 0.371584 -0.006529
0.025907 0.379484 -0.006529
0.025907 0.379484 0.001371
0.033807 0.371584 -0.006529
0.033807 0.379484 0.001371
0.025907 0.387384 0.001371
0.025907 0.395284 0.009271
0.025907 0.395284 0.017171
0.033807 0.387384 0.009271
0.033807 0.395284 0.017171
0.018007 0.403184 0.017171
0.033807 0.403184 0.017171
0.041707 0.371584 -0.006529
0.041707 0.379484 0.001371
0.049607 0.371584 0.001371
0.049607 0.379484 0.009271
0.041707 0.387384 0.009271
0.041707 0.395284 0.017171
0.049607 0.387384 0.017171
0.049607 0.395284 0.017171
0.057507 0.371584 0.001371
0.057507 0.379484 0.001371
0.065407 0.371584 -0.006529
0.065407 0.379484 0.001371
0.065407 0.379484 0.009271
0.057507 0.387384 0.009271
0.057507 0.387384 0.017171
0.065407 0.387384 0.017171
0.065407 0.395284 0.017171
0.073307 0.308384 -0.053929
0.073307 0.316284 -0.046029
0.081207 0.308384 -0.053929
0.081207 0.316284 -0.046029
0.089107 0.308384 -0.053929
0.089107 0.308384 -0.046029
0.089107 0.316284 -0.046029
0.097007 0.308384 -0.046029
0.112807 0.308384 -0.046029
0.120707 0.308384 -0.046029
0.073307 0.316284 -0.038129
0.073307 0.332084 -0.038129
0.073307 0.332084 -0.030229
0.081207 0.324184 -0.038129
0.081207 0.332084 -0.038129
0.097007 0.316284 -0.038129
0.089107 0.324184 -0.038129
0.089107 0.332084 -0.030229
0.097007 0.324184 -0.038129
0.097007 0.332084 -0.030229
0.097007 0.332084 -0.022329
0.073307 0.339984 -0.030229
0.081207 0.339984 -0.030229
0.073307 0.347884 -0.022329
0.081207 0.339984 -0.022329
0.081207 0.347884 -0.014429
0.073307 0.355784 -0.014429
0.081207 0.355784 -0.014429
0.089107 0.339984 -0.022329
0.089107 0.347884 -0.022329
0.089107 0.347884 -0.014429
0.097007 0.339984 -0.022329
0.097007 0.339984 -0.014429
0.097007 0.347884 -0.014429
0.089107 0.355784 -0.014429
0.073307 0.363684 -0.006529
0.089107 0.355784 -0.006529
0.089107 0.363684 -0.006529
0.097007 0.363684 -0.006529
0.104907 0.316284 -0.038129
0.104907 0.316284 -0.030229
0.112807 0.308384 -0.038129
0.112807 0.316284 -0.038129
0.104907 0.332084 -0.030229
0.112807 0.324184 -0.038129
0.112807 0.324184 -0.030229
0.112807 0.332084 -0.022329
0.120707 0.316284 -0.038129
0.128607 0.308384 -0.038129
0.128607 0.316284 -0.030229
0.120707 0.324184 -0.030229
0.128607 0.324184 -0.030229
0.120707 0.332084 -0.022329
0.128607 0.332084 -0.022329
0.104907 0.339984 -0.022329
0.104907 0.347884 -0.014429
0.112807 0.339984 -0.014429
0.112807 0.347884 -0.014429
0.120707 0.339984 -0.022329
0.120707 0.339984 -0.014429
0.128607 0.339984 -0.014429
0.128607 0.347884 -0.014429
0.104907 0.355784 -0.006529
0.104907 0.363684 0.001371
0.112807 0.363684 0.001371
0.120707 0.355784 -0.006529
0.120707 0.363684 0.001371
0.128607 0.355784 -0.006529
0.128607 0.355784 0.001371
0.128607 0.363684 0.001371
0.128607 0.363684 0.009271
0.073307 0.371584 0.001371
0.081207 0.371584 -0.006529
0.073307 0.379484 0.009271
0.081207 0.379484 0.009271
0.073307 0.387384 0.017171
0.081207 0.387384 0.017171
0.089107 0.371584 0.001371
0.089107 0.379484 0.001371
0.097007 0.371584 -0.006529
0.097007 0.371584 0.001371
0.089107 0.379484 0.009271
0.097007 0.379484 0.009271
0.089107 0.387384 0.017171
0.097007 0.387384 0.017171
0.112807 0.371584 0.001371
0.104907 0.371584 0.009271
0.104907 0.379484 0.017171
0.112807 0.371584 0.009271
0.112807 0.379484 0.017171
0.104907 0.387384 0.017171
0.120707 0.371584 0.009271
0.120707 0.379484 0.017171
0.128607 0.371584 0.009271
0.128607 0.371584 0.017171
0.136507 0.181984 -0.125029
0.136507 0.189884 -0.117129
0.136507 0.189884 -0.109229
0.144407 0.181984 -0.117129
0.144407 0.189884 -0.109229
0.136507 0.205684 -0.109229
0.144407 0.197784 -0.109229
0.152307 0.181984 -0.117129
0.152307 0.189884 -0.109229
0.160207 0.181984 -0.109229
0.168107 0.181984 -0.109229
0.176007 0.181984 -0.109229
0.136507 0.205684 -0.101329
0.144407 0.205684 -0.101329
0.160207 0.189884 -0.101329
0.152307 0.197784 -0.101329
0.152307 0.205684 -0.101329
0.160207 0.197784 -0.101329
0.160207 0.205684 -0.101329
0.136507 0.213584 -0.101329
0.136507 0.221484 -0.093429
0.144407 0.213584 -0.101329
0.144407 0.213584 -0.093429
0.144407 0.221484 -0.093429
0.136507 0.229384 -0.093429
0.136507 0.237284 -0.085529
0.144407 0.229384 -0.085529
0.144407 0.237284 -0.085529
0.152307 0.213584 -0.093429
0.152307 0.221484 -0.093429
0.160207 0.213584 -0.093429
0.160207 0.221484 -0.085529
0.152307 0.229384 -0.085529
0.152307 0.237284 -0.077629
0.160207 0.237284 -0.077629
0.168107 0.189884 -0.101329
0.176007 0.181984 -0.101329
0.176007 0.189884 -0.101329
0.168107 0.197784 -0.101329
0.168107 0.205684 -0.093429
0.176007 0.197784 -0.093429
0.176007 0.205684 -0.093429
0.183907 0.181984 -0.101329
0.183907 0.189884 -0.093429
0.191807 0.181984 -0.101329
0.191807 0.189884 -0.093429
0.183907 0.197784 -0.093429
0.183907 0.205684 -0.085529
0.191807 0.197784 -0.085529
0.168107 0.221484 -0.085529
0.176007 0.213584 -0.085529
0.176007 0.221484 -0.077629
0.168107 0.229384 -0.077629
0.176007 0.229384 -0.077629
0.176007 0.237284 -0.077629
0.183907 0.213584 -0.085529
0.183907 0.213584 -0.077629
0.183907 0.221484 -0.077629
0.191807 0.213584 -0.085529
0.191807 0.221484 -0.077629
0.168107 0.237284 -0.069729
0.183907 0.229384 -0.069729
0.183907 0.237284 -0.069729
0.191807 0.237284 -0.069729
0.191807 0.237284 -0.061829
0.136507 0.245184 -0.077629
0.144407 0.245184 -0.077629
0.144407 0.253084 -0.077629
0.152307 0.245184 -0.077629
0.136507 0.253084 -0.069729
0.144407 0.253084 -0.069729
0.136507 0.268884 -0.069729
0.144407 0.260984 -0.069729
0.144407 0.268884 -0.069729
0.144407 0.268884 -0.061829
0.152307 0.253084 -0.069729
0.160207 0.245184 -0.069729
0.160207 0.253084 -0.069729
0.152307 0.260984 -0.069729
0.152307 0.260984 -0.061829
0.152307 0.268884 -0.061829
0.160207 0.260984 -0.061829
0.136507 0.276784 -0.061829
0.144407 0.276784 -0.061829
0.136507 0.284684 -0.053929
0.144407 0.284684 -0.053929
0.136507 0.292584 -0.046029
0.144407 0.292584 -0.046029
0.152307 0.276784 -0.053929
0.152307 0.284684 -0.046029
0.160207 0.276784 -0.053929
0.160207 0.284684 -0.046029
0.152307 0.292584 -0.046029
0.168107 0.245184 -0.069729
0.168107 0.253084 -0.061829
0.176007 0.245184 -0.069729
0.176007 0.253084 -0.061829
0.168107 0.260984 -0.061829
0.176007 0.260984 -0.061829
0.168107 0.268884 -0.053929
0.176007 0.260984 -0.053929
0.176007 0.268884 -0.053929
0.183907 0.245184 -0.069729
0.191807 0.253084 -0.061829
0.183907 0.260984 -0.061829
0.183907 0.268884 -0.053929
0.191807 0.260984 -0.053929
0.191807 0.268884 -0.046029
0.168107 0.276784 -0.053929
0.168107 0.284684 -0.046029
0.176007 0.276784 -0.046029
0.176007 0.284684 -0.046029
0.168107 0.292584 -0.046029
0.183907 0.276784 -0.046029
0.183907 0.284684 -0.046029
0.191807 0.284684 -0.046029
0.136507 0.300484 -0.038129
0.152307 0.300484 -0.038129
0.160207 0.292584 -0.038129
0.160207 0.300484 -0.038129
0.176007 0.284684 -0.038129
0.168107 0.300484 -0.038129
0.168107 0.300484 -0.030229
0.176007 0.292584 -0.038129
0.176007 0.300484 -0.038129
0.183907 0.284684 -0.038129
0.191807 0.284684 -0.038129
0.183907 0.292584 -0.030229
0.183907 0.300484 -0.030229
0.191807 0.300484 -0.030229
0.199707 0.181984 -0.101329
0.199707 0.189884 -0.093429
0.207607 0.181984 -0.093429
0.207607 0.189884 -0.085529
0.199707 0.197784 -0.085529
0.199707 0.205684 -0.085529
0.207607 0.197784 -0.077629
0.207607 0.205684 -0.077629
0.215507 0.181984 -0.093429
0.215507 0.189884 -0.085529
0.223407 0.181984 -0.085529
0.223407 0.189884 -0.077629
0.215507 0.197784 -0.077629
0.215507 0.205684 -0.077629
0.223407 0.197784 -0.077629
0.223407 0.205684 -0.069729
0.199707 0.213584 -0.077629
0.207607 0.213584 -0.077629
0.199707 0.221484 -0.069729
0.207607 0.221484 -0.069729
0.199707 0.229384 -0.069729
0.199707 0.237284 -0.061829
0.207607 0.229384 -0.061829
0.207607 0.237284 -0.061829
0.215507 0.213584 -0.069729
0.215507 0.221484 -0.069729
0.223407 0.213584 -0.069729
0.223407 0.221484 -0.061829
0.215507 0.229384 -0.061829
0.215507 0.237284 -0.061829
0.223407 0.229384 -0.061829
0.223407 0.237284 -0.053929
0.231307 0.181984 -0.077629
0.231307 0.189884 -0.077629
0.239207 0.189884 -0.077629
0.247107 0.181984 -0.077629
0.247107 0.189884 -0.077629
0.255007 0.181984 -0.077629
0.231307 0.197784 -0.069729
0.239207 0.197784 -0.069729
0.239207 0.205684 -0.069729
0.247107 0.189884 -0.069729
0.255007 0.189884 -0.069729
0.247107 0.197784 -0.069729
0.247107 0.205684 -0.061829
0.255007 0.197784 -0.061829
0.255007 0.205684 -0.061829
0.231307 0.213584 -0.069729
0.231307 0.221484 -0.061829
0.239207 0.213584 -0.061829
0.239207 0.221484 -0.061829
0.239207 0.229384 -0.061829
0.231307 0.229384 -0.053929
0.231307 0.237284 -0.053929
0.239207 0.229384 -0.053929
0.239207 0.237284 -0.046029
0.247107 0.213584 -0.061829
0.247107 0.221484 -0.053929
0.255007 0.213584 -0.053929
0.255007 0.221484 -0.053929
0.247107 0.229384 -0.053929
0.247107 0.237284 -0.046029
0.255007 0.229384 -0.046029
0.199707 0.245184 -0.061829
0.199707 0.253084 -0.061829
0.207607 0.245184 -0.061829
0.199707 0.253084 -0.053929
0.207607 0.253084 -0.053929
0.199707 0.260984 -0.053929
0.199707 0.268884 -0.046029
0.207607 0.260984 -0.053929
0.207607 0.268884 -0.046029
0.215507 0.245184 -0.053929
0.215507 0.253084 -0.046029
0.223407 0.245184 -0.053929
0.223407 0.253084 -0.046029
0.215507 0.260984 -0.046029
0.215507 0.268884 -0.046029
0.223407 0.260984 -0.046029
0.199707 0.276784 -0.046029
0.231307 0.253084 -0.046029
0.239207 0.245184 -0.046029
0.231307 0.260984 -0.046029
0.247107 0.245184 -0.046029
0.223407 0.268884 -0.038129
0.199707 0.276784 -0.038129
0.199707 0.284684 -0.038129
0.207607 0.276784 -0.038129
0.207607 0.284684 -0.030229
0.199707 0.292584 -0.030229
0.199707 0.300484 -0.030229
0.207607 0.292584 -0.030229
0.207607 0.300484 -0.030229
0.207607 0.300484 -0.022329
0.215507 0.276784 -0.038129
0.215507 0.276784 -0.030229
0.223407 0.284684 -0.030229
0.215507 0.292584 -0.030229
0.223407 0.292584 -0.030229
0.215507 0.292584 -0.022329
0.223407 0.300484 -0.022329
0.239207 0.253084 -0.038129
0.231307 0.260984 -0.038129
0.239207 0.260984 -0.038129
0.239207 0.268884 -0.030229
0.247107 0.253084 -0.038129
0.255007 0.245184 -0.038129
0.255007 0.253084 -0.038129
0.247107 0.268884 -0.038129
0.255007 0.260984 -0.038129
0.255007 0.268884 -0.030229
0.231307 0.276784 -0.030229
0.239207 0.276784 -0.030229
0.231307 0.284684 -0.022329
0.231307 0.292584 -0.022329
0.231307 0.300484 -0.014429
0.239207 0.292584 -0.022329
0.239207 0.300484 -0.014429
0.247107 0.276784 -0.030229
0.247107 0.276784 -0.022329
0.247107 0.284684 -0.022329
0.255007 0.276784 -0.022329
0.255007 0.284684 -0.014429
0.247107 0.292584 -0.014429
0.247107 0.300484 -0.014429
0.255007 0.292584 -0.014429
0.255007 0.300484 -0.014429
0.255007 0.300484 -0.006529
0.136507 0.308384 -0.038129
0.136507 0.308384 -0.030229
0.136507 0.316284 -0.030229
0.144407 0.308384 -0.038129
0.144407 0.316284 -0.030229
0.136507 0.324184 -0.030229
0.136507 0.332084 -0.022329
0.136507 0.332084 -0.014429
0.144407 0.324184 -0.022329
0.144407 0.332084 -0.014429
0.152307 0.308384 -0.038129
0.152307 0.308384 -0.030229
0.152307 0.316284 -0.030229
0.160207 0.308384 -0.030229
0.160207 0.316284 -0.022329
0.152307 0.324184 -0.022329
0.152307 0.332084 -0.014429
0.160207 0.324184 -0.014429
0.160207 0.332084 -0.014429
0.136507 0.339984 -0.014429
0.144407 0.339984 -0.014429
0.136507 0.347884 -0.006529
0.144407 0.347884 -0.006529
0.136507 0.363684 0.001371
0.144407 0.355784 0.001371
0.144407 0.363684 0.009271
0.152307 0.339984 -0.006529
0.152307 0.347884 0.001371
0.160207 0.339984 -0.006529
0.160207 0.347884 -0.006529
0.160207 0.355784 0.001371
0.152307 0.355784 0.009271
0.152307 0.363684 0.009271
0.160207 0.363684 0.009271
0.160207 0.363684 0.017171
0.176007 0.308384 -0.030229
0.168107 0.316284 -0.022329
0.176007 0.316284 -0.022329
0.168107 0.324184 -0.022329
0.168107 0.332084 -0.014429
0.176007 0.324184 -0.022329
0.176007 0.324184 -0.014429
0.183907 0.308384 -0.022329
0.183907 0.316284 -0.014429
0.191807 0.316284 -0.022329
0.183907 0.324184 -0.014429
0.191807 0.324184 -0.014429
0.176007 0.332084 -0.006529
0.183907 0.332084 -0.006529
0.191807 0.332084 -0.006529
0.168107 0.339984 -0.006529
0.168107 0.347884 0.001371
0.176007 0.339984 -0.006529
0.176007 0.347884 0.009271
0.168107 0.355784 0.009271
0.168107 0.363684 0.009271
0.176007 0.355784 0.009271
0.176007 0.363684 0.017171
0.183907 0.339984 0.001371
0.191807 0.339984 0.001371
0.191807 0.347884 0.001371
0.191807 0.347884 0.009271
0.183907 0.355784 0.009271
0.183907 0.363684 0.017171
0.191807 0.355784 0.009271
0.191807 0.363684 0.017171
0.136507 0.371584 0.017171
0.136507 0.379484 0.017171
0.144407 0.371584 0.017171
0.152307 0.371584 0.017171
0.160207 0.371584 0.017171
0.176007 0.371584 0.017171
0.199707 0.308384 -0.022329
0.199707 0.316284 -0.014429
0.207607 0.308384 -0.014429
0.199707 0.324184 -0.014429
0.207607 0.324184 -0.014429
0.215507 0.308384 -0.022329
0.215507 0.316284 -0.014429
0.223407 0.308384 -0.022329
0.223407 0.308384 -0.014429
0.223407 0.316284 -0.014429
0.199707 0.324184 -0.006529
0.199707 0.332084 -0.006529
0.207607 0.324184 -0.006529
0.207607 0.332084 -0.006529
0.207607 0.332084 0.001371
0.215507 0.316284 -0.006529
0.223407 0.316284 -0.006529
0.215507 0.324184 -0.006529
0.223407 0.332084 0.001371
0.223407 0.332084 0.009271
0.199707 0.339984 0.001371
0.199707 0.347884 0.009271
0.207607 0.339984 0.009271
0.207607 0.347884 0.009271
0.199707 0.355784 0.017171
0.199707 0.363684 0.017171
0.207607 0.355784 0.017171
0.215507 0.339984 0.001371
0.215507 0.339984 0.009271
0.215507 0.347884 0.017171
0.223407 0.347884 0.009271
0.223407 0.347884 0.017171
0.223407 0.355784 0.017171
0.231307 0.308384 -0.014429
0.231307 0.308384 -0.006529
0.231307 0.316284 -0.006529
0.239207 0.308384 -0.006529
0.239207 0.316284 -0.006529
0.231307 0.324184 0.001371
0.231307 0.332084 0.001371
0.239207 0.324184 0.001371
0.239207 0.332084 0.009271
0.247107 0.308384 -0.006529
0.255007 0.308384 -0.006529
0.255007 0.316284 -0.006529
0.255007 0.316284 0.001371
0.247107 0.324184 0.001371
0.255007 0.324184 0.001371
0.247107 0.332084 0.009271
0.255007 0.324184 0.009271
0.231307 0.339984 0.009271
0.231307 0.339984 0.017171
0.239207 0.339984 0.009271
0.239207 0.347884 0.017171
0.247107 0.339984 0.009271
0.247107 0.347884 0.017171
0.255007 0.339984 0.017171
0.010107 0.181984 0.167271
0.018007 0.181984 0.175171
0.018007 0.189884 0.175171
0.010107 0.197784 0.175171
0.010107 0.205684 0.175171
0.018007 0.197784 0.175171
0.018007 0.205684 0.175171
0.025907 0.181984 0.175171
0.033807 0.181984 0.175171
0.033807 0.189884 0.175171
0.025907 0.197784 0.175171
0.025907 0.205684 0.175171
0.033807 0.197784 0.175171
0.033807 0.205684 0.183071
0.010107 0.221484 0.183071
0.018007 0.213584 0.183071
0.018007 0.221484 0.183071
0.010107 0.229384 0.183071
0.018007 0.229384 0.183071
0.018007 0.237284 0.183071
0.025907 0.213584 0.183071
0.025907 0.221484 0.183071
0.033807 0.213584 0.183071
0.033807 0.221484 0.183071
0.025907 0.229384 0.183071
0.025907 0.237284 0.183071
0.033807 0.229384 0.183071
0.033807 0.229384 0.190971
0.033807 0.237284 0.190971
0.041707 0.189884 0.175171
0.049607 0.181984 0.175171
0.049607 0.189884 0.175171
0.041707 0.197784 0.175171
0.057507 0.181984 0.175171
0.041707 0.205684 0.183071
0.049607 0.197784 0.183071
0.049607 0.205684 0.183071
0.057507 0.181984 0.183071
0.057507 0.189884 0.183071
0.065407 0.181984 0.190971
0.065407 0.189884 0.190971
0.057507 0.197784 0.183071
0.057507 0.205684 0.183071
0.057507 0.205684 0.190971
0.065407 0.197784 0.190971
0.065407 0.205684 0.183071
0.065407 0.205684 0.190971
0.041707 0.213584 0.183071
0.041707 0.221484 0.183071
0.049607 0.213584 0.183071
0.049607 0.213584 0.190971
0.049607 0.221484 0.190971
0.041707 0.229384 0.190971
0.049607 0.229384 0.190971
0.049607 0.229384 0.198871
0.049607 0.237284 0.198871
0.057507 0.213584 0.190971
0.057507 0.221484 0.198871
0.065407 0.213584 0.198871
0.065407 0.221484 0.198871
0.057507 0.237284 0.198871
0.065407 0.229384 0.198871
0.065407 0.237284 0.198871
0.010107 0.253084 0.175171
0.010107 0.245184 0.183071
0.010107 0.253084 0.190971
0.018007 0.245184 0.190971
0.018007 0.253084 0.198871
0.010107 0.260984 0.198871
0.010107 0.268884 0.198871
0.018007 0.260984 0.198871
0.018007 0.268884 0.198871
0.025907 0.245184 0.183071
0.025907 0.245184 0.190971
0.025907 0.245184 0.206771
0.033807 0.245184 0.198871
0.033807 0.253084 0.198871
0.025907 0.260984 0.198871
0.025907 0.268884 0.198871
0.033807 0.260984 0.198871
0.033807 0.268884 0.206771
0.010107 0.276784 0.198871
0.010107 0.284684 0.198871
0.018007 0.284684 0.206771
0.010107 0.292584 0.198871
0.010107 0.300484 0.198871
0.018007 0.300484 0.206771
0.025907 0.276784 0.206771
0.025907 0.284684 0.206771
0.033807 0.276784 0.206771
0.025907 0.292584 0.206771
0.025907 0.300484 0.206771
0.033807 0.292584 0.206771
0.033807 0.300484 0.206771
0.041707 0.245184 0.190971
0.041707 0.245184 0.198871
0.041707 0.253084 0.198871
0.049607 0.245184 0.198871
0.049607 0.253084 0.198871
0.041707 0.260984 0.198871
0.041707 0.268884 0.198871
0.049607 0.260984 0.198871
0.049607 0.268884 0.206771
0.057507 0.245184 0.198871
0.057507 0.253084 0.198871
0.065407 0.245184 0.198871
0.065407 0.253084 0.206771
0.057507 0.260984 0.198871
0.057507 0.260984 0.206771
0.057507 0.268884 0.206771
0.065407 0.268884 0.206771
0.041707 0.276784 0.198871
0.041707 0.284684 0.206771
0.049607 0.276784 0.206771
0.041707 0.292584 0.206771
0.041707 0.300484 0.206771
0.049607 0.292584 0.206771
0.049607 0.300484 0.206771
0.057507 0.276784 0.198871
0.057507 0.284684 0.206771
0.065407 0.276784 0.206771
0.065407 0.284684 0.206771
0.057507 0.292584 0.206771
0.057507 0.300484 0.206771
0.065407 0.300484 0.206771
0.073307 0.181984 0.190971
0.073307 0.189884 0.190971
0.081207 0.181984 0.190971
0.081207 0.189884 0.190971
0.081207 0.197784 0.190971
0.073307 0.205684 0.198871
0.081207 0.205684 0.198871
0.089107 0.181984 0.190971
0.089107 0.189884 0.190971
0.097007 0.181984 0.190971
0.097007 0.189884 0.190971
0.089107 0.205684 0.198871
0.097007 0.197784 0.198871
0.073307 0.213584 0.198871
0.073307 0.221484 0.198871
0.081207 0.221484 0.198871
0.073307 0.229384 0.198871
0.073307 0.237284 0.206771
0.081207 0.229384 0.198871
0.081207 0.237284 0.198871
0.089107 0.213584 0.198871
0.089107 0.221484 0.198871
0.097007 0.213584 0.198871
0.089107 0.229384 0.198871
0.089107 0.237284 0.198871
0.097007 0.229384 0.198871
0.104907 0.181984 0.190971
0.104907 0.189884 0.190971
0.112807 0.181984 0.190971
0.112807 0.189884 0.190971
0.104907 0.197784 0.190971
0.104907 0.205684 0.190971
0.104907 0.205684 0.198871
0.112807 0.197784 0.198871
0.112807 0.205684 0.198871
0.120707 0.181984 0.198871
0.120707 0.189884 0.198871
0.128607 0.181984 0.198871
0.128607 0.189884 0.198871
0.120707 0.197784 0.198871
0.120707 0.205684 0.198871
0.128607 0.197784 0.198871
0.128607 0.205684 0.198871
0.104907 0.213584 0.198871
0.104907 0.221484 0.198871
0.112807 0.213584 0.198871
0.112807 0.221484 0.198871
0.104907 0.229384 0.198871
0.104907 0.237284 0.198871
0.112807 0.237284 0.206771
0.120707 0.213584 0.198871
0.120707 0.221484 0.206771
0.128607 0.213584 0.198871
0.128607 0.221484 0.198871
0.120707 0.229384 0.198871
0.120707 0.229384 0.206771
0.120707 0.237284 0.206771
0.128607 0.237284 0.198871
0.073307 0.253084 0.206771
0.081207 0.245184 0.198871
0.081207 0.245184 0.206771
0.081207 0.253084 0.206771
0.073307 0.260984 0.206771
0.073307 0.268884 0.206771
0.081207 0.268884 0.206771
0.089107 0.245184 0.198871
0.089107 0.253084 0.206771
0.097007 0.245184 0.198871
0.097007 0.253084 0.206771
0.089107 0.260984 0.206771
0.089107 0.268884 0.206771
0.097007 0.260984 0.206771
0.097007 0.268884 0.206771
0.073307 0.276784 0.206771
0.073307 0.284684 0.206771
0.081207 0.276784 0.206771
0.073307 0.292584 0.206771
0.073307 0.300484 0.206771
0.081207 0.292584 0.206771
0.089107 0.276784 0.206771
0.089107 0.284684 0.206771
0.097007 0.276784 0.206771
0.089107 0.292584 0.206771
0.089107 0.300484 0.206771
0.097007 0.292584 0.206771
0.097007 0.300484 0.206771
0.104907 0.245184 0.198871
0.104907 0.245184 0.206771
0.104907 0.253084 0.206771
0.112807 0.253084 0.206771
0.104907 0.260984 0.206771
0.112807 0.260984 0.206771
0.112807 0.268884 0.206771
0.120707 0.245184 0.206771
0.120707 0.253084 0.206771
0.128607 0.245184 0.198871
0.128607 0.253084 0.198871
0.120707 0.268884 0.206771
0.128607 0.260984 0.198871
0.128607 0.260984 0.206771
0.128607 0.268884 0.198871
0.104907 0.276784 0.206771
0.104907 0.284684 0.206771
0.112807 0.276784 0.206771
0.112807 0.284684 0.206771
0.104907 0.292584 0.206771
0.104907 0.300484 0.206771
0.112807 0.292584 0.198871
0.112807 0.292584 0.206771
0.120707 0.284684 0.206771
0.128607 0.276784 0.198871
0.128607 0.284684 0.206771
0.120707 0.292584 0.206771
0.120707 0.300484 0.206771
0.128607 0.300484 0.206771
0.097007 0.284684 0.214671
0.104907 0.268884 0.214671
0.010107 0.411084 0.025071
0.018007 0.403184 0.025071
0.018007 0.411084 0.025071
0.010107 0.418984 0.032971
0.018007 0.418984 0.032971
0.010107 0.426884 0.040871
0.010107 0.426884 0.048771
0.018007 0.426884 0.040871
0.018007 0.426884 0.048771
0.025907 0.403184 0.025071
0.025907 0.411084 0.032971
0.033807 0.403184 0.025071
0.033807 0.411084 0.025071
0.025907 0.418984 0.032971
0.033807 0.418984 0.032971
0.025907 0.426884 0.040871
0.033807 0.418984 0.040871
0.033807 0.426884 0.048771
0.010107 0.426884 0.056671
0.025907 0.426884 0.056671
0.033807 0.426884 0.056671
0.057507 0.395284 0.025071
0.041707 0.411084 0.032971
0.049607 0.403184 0.025071
0.049607 0.411084 0.032971
0.041707 0.418984 0.040871
0.041707 0.418984 0.048771
0.041707 0.426884 0.048771
0.049607 0.418984 0.040871
0.057507 0.403184 0.025071
0.057507 0.403184 0.032971
0.065407 0.403184 0.025071
0.065407 0.403184 0.032971
0.065407 0.411084 0.032971
0.057507 0.411084 0.040871
0.057507 0.418984 0.048771
0.057507 0.426884 0.048771
0.065407 0.418984 0.040871
0.065407 0.418984 0.048771
0.041707 0.426884 0.056671
0.049607 0.426884 0.056671
0.057507 0.426884 0.064571
0.065407 0.426884 0.056671
0.057507 0.426884 0.080371
0.065407 0.426884 0.072471
0.065407 0.426884 0.080371
0.010107 0.426884 0.111971
0.018007 0.426884 0.111971
0.025907 0.426884 0.096171
0.025907 0.426884 0.104071
0.018007 0.426884 0.119871
0.010107 0.418984 0.135671
0.018007 0.418984 0.135671
0.018007 0.418984 0.143571
0.033807 0.411084 0.143571
0.025907 0.426884 0.119871
0.025907 0.426884 0.127771
0.033807 0.418984 0.127771
0.033807 0.426884 0.119871
0.025907 0.418984 0.135671
0.025907 0.418984 0.143571
0.033807 0.418984 0.135671
0.033807 0.418984 0.143571
0.041707 0.426884 0.096171
0.049607 0.426884 0.088271
0.049607 0.426884 0.096171
0.041707 0.426884 0.104071
0.041707 0.426884 0.111971
0.049607 0.426884 0.111971
0.057507 0.426884 0.088271
0.057507 0.426884 0.096171
0.065407 0.426884 0.088271
0.065407 0.426884 0.096171
0.057507 0.426884 0.111971
0.065407 0.426884 0.104071
0.041707 0.418984 0.127771
0.049607 0.418984 0.127771
0.049607 0.426884 0.119871
0.041707 0.418984 0.135671
0.049607 0.418984 0.143571
0.057507 0.418984 0.127771
0.057507 0.426884 0.119871
0.065407 0.418984 0.119871
0.057507 0.418984 0.135671
0.065407 0.418984 0.143571
0.073307 0.395284 0.025071
0.081207 0.395284 0.025071
0.089107 0.387384 0.025071
0.089107 0.395284 0.025071
0.097007 0.387384 0.025071
0.097007 0.395284 0.032971
0.073307 0.403184 0.032971
0.081207 0.403184 0.025071
0.073307 0.411084 0.040871
0.081207 0.403184 0.040871
0.081207 0.411084 0.040871
0.081207 0.411084 0.048771
0.073307 0.418984 0.048771
0.081207 0.418984 0.048771
0.089107 0.403184 0.032971
0.089107 0.403184 0.040871
0.089107 0.411084 0.048771
0.097007 0.403184 0.040871
0.097007 0.411084 0.040871
0.097007 0.411084 0.048771
0.073307 0.418984 0.056671
0.073307 0.426884 0.064571
0.081207 0.426884 0.056671
0.081207 0.426884 0.064571
0.073307 0.418984 0.080371
0.073307 0.426884 0.072471
0.073307 0.426884 0.080371
0.081207 0.418984 0.072471
0.081207 0.426884 0.072471
0.081207 0.426884 0.080371
0.089107 0.418984 0.056671
0.089107 0.418984 0.064571
0.089107 0.426884 0.064571
0.097007 0.418984 0.056671
0.097007 0.418984 0.064571
0.089107 0.426884 0.072471
0.097007 0.426884 0.072471
0.097007 0.426884 0.080371
0.104907 0.395284 0.025071
0.104907 0.395284 0.032971
0.112807 0.387384 0.025071
0.112807 0.395284 0.025071
0.112807 0.395284 0.032971
0.120707 0.387384 0.025071
0.120707 0.395284 0.032971
0.128607 0.395284 0.032971
0.120707 0.395284 0.040871
0.128607 0.395284 0.040871
0.104907 0.403184 0.040871
0.104907 0.411084 0.040871
0.112807 0.403184 0.040871
0.112807 0.411084 0.048771
0.120707 0.403184 0.040871
0.120707 0.403184 0.048771
0.128607 0.403184 0.040871
0.128607 0.403184 0.048771
0.104907 0.411084 0.056671
0.112807 0.411084 0.056671
0.104907 0.418984 0.064571
0.112807 0.418984 0.064571
0.104907 0.418984 0.080371
0.112807 0.418984 0.072471
0.120707 0.411084 0.056671
0.128607 0.403184 0.056671
0.128607 0.411084 0.064571
0.128607 0.411084 0.072471
0.120707 0.418984 0.072471
0.120707 0.418984 0.080371
0.128607 0.418984 0.080371
0.073307 0.426884 0.088271
0.073307 0.426884 0.096171
0.081207 0.418984 0.096171
0.081207 0.426884 0.088271
0.073307 0.418984 0.104071
0.073307 0.418984 0.111971
0.073307 0.426884 0.111971
0.081207 0.418984 0.111971
0.081207 0.426884 0.104071
0.089107 0.418984 0.088271
0.089107 0.418984 0.096171
0.097007 0.426884 0.088271
0.097007 0.426884 0.096171
0.089107 0.418984 0.104071
0.089107 0.418984 0.111971
0.089107 0.426884 0.111971
0.097007 0.418984 0.104071
0.081207 0.411084 0.119871
0.081207 0.411084 0.143571
0.073307 0.418984 0.127771
0.081207 0.418984 0.119871
0.081207 0.418984 0.127771
0.073307 0.418984 0.135671
0.081207 0.418984 0.135671
0.081207 0.418984 0.143571
0.097007 0.411084 0.127771
0.089107 0.411084 0.143571
0.097007 0.403184 0.143571
0.097007 0.411084 0.135671
0.097007 0.411084 0.143571
0.089107 0.418984 0.119871
0.089107 0.418984 0.127771
0.097007 0.418984 0.119871
0.089107 0.418984 0.135671
0.104907 0.418984 0.088271
0.104907 0.426884 0.088271
0.104907 0.426884 0.096171
0.112807 0.418984 0.088271
0.104907 0.418984 0.104071
0.104907 0.418984 0.111971
0.104907 0.426884 0.111971
0.128607 0.411084 0.096171
0.120707 0.411084 0.111971
0.120707 0.418984 0.088271
0.120707 0.418984 0.096171
0.128607 0.418984 0.088271
0.120707 0.418984 0.104071
0.120707 0.418984 0.111971
0.112807 0.411084 0.119871
0.104907 0.411084 0.135671
0.112807 0.403184 0.143571
0.112807 0.411084 0.135671
0.112807 0.411084 0.143571
0.104907 0.418984 0.119871
0.112807 0.418984 0.127771
0.128607 0.411084 0.127771
0.120707 0.411084 0.135671
0.120707 0.411084 0.143571
0.128607 0.403184 0.143571
0.120707 0.418984 0.119871
0.120707 0.418984 0.127771
0.010107 0.308384 0.206771
0.018007 0.316284 0.206771
0.010107 0.324184 0.206771
0.018007 0.324184 0.206771
0.018007 0.332084 0.198871
0.018007 0.332084 0.206771
0.025907 0.308384 0.206771
0.025907 0.316284 0.206771
0.033807 0.308384 0.206771
0.033807 0.316284 0.206771
0.025907 0.324184 0.206771
0.025907 0.332084 0.206771
0.033807 0.324184 0.206771
0.033807 0.332084 0.198871
0.010107 0.339984 0.198871
0.010107 0.347884 0.198871
0.018007 0.339984 0.198871
0.018007 0.347884 0.198871
0.010107 0.355784 0.198871
0.010107 0.363684 0.198871
0.018007 0.355784 0.198871
0.025907 0.339984 0.198871
0.025907 0.347884 0.198871
0.033807 0.347884 0.198871
0.033807 0.363684 0.190971
0.025907 0.355784 0.198871
0.025907 0.363684 0.198871
0.033807 0.355784 0.198871
0.033807 0.363684 0.198871
0.041707 0.308384 0.206771
0.041707 0.316284 0.206771
0.049607 0.308384 0.206771
0.049607 0.316284 0.206771
0.041707 0.332084 0.198871
0.049607 0.324184 0.206771
0.049607 0.332084 0.198871
0.057507 0.316284 0.206771
0.065407 0.308384 0.206771
0.065407 0.316284 0.206771
0.057507 0.324184 0.206771
0.057507 0.332084 0.198871
0.065407 0.324184 0.198871
0.065407 0.332084 0.198871
0.041707 0.339984 0.198871
0.041707 0.347884 0.198871
0.049607 0.339984 0.198871
0.049607 0.347884 0.198871
0.041707 0.363684 0.190971
0.049607 0.363684 0.190971
0.041707 0.355784 0.198871
0.049607 0.355784 0.198871
0.049607 0.363684 0.198871
0.057507 0.339984 0.198871
0.057507 0.347884 0.198871
0.065407 0.339984 0.198871
0.065407 0.363684 0.190971
0.057507 0.355784 0.198871
0.065407 0.355784 0.198871
0.065407 0.308384 0.214671
0.018007 0.395284 0.175171
0.025907 0.395284 0.175171
0.033807 0.395284 0.175171
0.010107 0.371584 0.190971
0.010107 0.379484 0.190971
0.018007 0.371584 0.190971
0.018007 0.379484 0.190971
0.010107 0.387384 0.183071
0.010107 0.395284 0.183071
0.018007 0.387384 0.183071
0.025907 0.371584 0.190971
0.025907 0.379484 0.190971
0.033807 0.371584 0.190971
0.033807 0.379484 0.190971
0.025907 0.395284 0.183071
0.033807 0.387384 0.183071
0.033807 0.395284 0.183071
0.010107 0.411084 0.159371
0.018007 0.411084 0.151471
0.010107 0.403184 0.175171
0.018007 0.403184 0.167271
0.018007 0.403184 0.175171
0.010107 0.418984 0.151471
0.025907 0.411084 0.151471
0.025907 0.411084 0.159371
0.033807 0.411084 0.151471
0.033807 0.411084 0.159371
0.025907 0.403184 0.167271
0.025907 0.403184 0.175171
0.057507 0.395284 0.175171
0.065407 0.395284 0.175171
0.041707 0.371584 0.190971
0.049607 0.371584 0.190971
0.049607 0.379484 0.190971
0.041707 0.387384 0.183071
0.041707 0.395284 0.183071
0.049607 0.387384 0.183071
0.049607 0.395284 0.183071
0.057507 0.371584 0.190971
0.057507 0.379484 0.190971
0.065407 0.371584 0.190971
0.065407 0.379484 0.183071
0.057507 0.395284 0.183071
0.065407 0.387384 0.183071
0.065407 0.395284 0.183071
0.041707 0.411084 0.159371
0.049607 0.411084 0.151471
0.049607 0.411084 0.159371
0.041707 0.403184 0.167271
0.041707 0.403184 0.175171
0.041707 0.411084 0.167271
0.049607 0.403184 0.167271
0.057507 0.411084 0.151471
0.057507 0.411084 0.159371
0.065407 0.403184 0.159371
0.065407 0.411084 0.159371
0.057507 0.403184 0.167271
0.065407 0.403184 0.167271
0.073307 0.308384 0.206771
0.073307 0.316284 0.206771
0.081207 0.308384 0.206771
0.073307 0.324184 0.198871
0.073307 0.332084 0.198871
0.081207 0.324184 0.198871
0.081207 0.332084 0.198871
0.089107 0.308384 0.206771
0.089107 0.316284 0.206771
0.097007 0.308384 0.206771
0.097007 0.316284 0.206771
0.089107 0.324184 0.198871
0.089107 0.332084 0.198871
0.097007 0.332084 0.198871
0.073307 0.339984 0.198871
0.073307 0.347884 0.198871
0.081207 0.339984 0.198871
0.081207 0.347884 0.198871
0.073307 0.363684 0.190971
0.081207 0.363684 0.190971
0.073307 0.355784 0.198871
0.081207 0.355784 0.198871
0.089107 0.347884 0.198871
0.097007 0.339984 0.198871
0.097007 0.347884 0.198871
0.089107 0.363684 0.190971
0.097007 0.363684 0.190971
0.089107 0.355784 0.198871
0.097007 0.363684 0.198871
0.104907 0.308384 0.206771
0.104907 0.316284 0.206771
0.112807 0.308384 0.206771
0.112807 0.316284 0.206771
0.104907 0.324184 0.198871
0.104907 0.332084 0.198871
0.112807 0.324184 0.206771
0.112807 0.332084 0.198871
0.120707 0.308384 0.206771
0.128607 0.308384 0.206771
0.128607 0.316284 0.206771
0.120707 0.324184 0.206771
0.120707 0.332084 0.198871
0.128607 0.324184 0.198871
0.104907 0.339984 0.198871
0.104907 0.347884 0.198871
0.112807 0.339984 0.198871
0.112807 0.347884 0.198871
0.104907 0.363684 0.190971
0.112807 0.363684 0.190971
0.104907 0.355784 0.198871
0.112807 0.355784 0.198871
0.112807 0.363684 0.198871
0.120707 0.339984 0.198871
0.120707 0.347884 0.198871
0.128607 0.339984 0.198871
0.128607 0.347884 0.198871
0.120707 0.355784 0.198871
0.120707 0.363684 0.198871
0.128607 0.355784 0.198871
0.128607 0.363684 0.198871
0.073307 0.395284 0.175171
0.081207 0.395284 0.175171
0.089107 0.395284 0.175171
0.097007 0.387384 0.175171
0.097007 0.395284 0.167271
0.097007 0.395284 0.175171
0.073307 0.371584 0.190971
0.073307 0.379484 0.183071
0.081207 0.371584 0.190971
0.081207 0.379484 0.183071
0.081207 0.387384 0.183071
0.089107 0.379484 0.190971
0.097007 0.371584 0.190971
0.097007 0.379484 0.183071
0.089107 0.387384 0.183071
0.097007 0.387384 0.183071
0.073307 0.411084 0.151471
0.073307 0.411084 0.159371
0.081207 0.411084 0.151471
0.081207 0.411084 0.159371
0.073307 0.403184 0.167271
0.089107 0.403184 0.151471
0.089107 0.403184 0.159371
0.089107 0.411084 0.159371
0.097007 0.403184 0.151471
0.089107 0.403184 0.167271
0.097007 0.403184 0.167271
0.112807 0.387384 0.175171
0.112807 0.395284 0.167271
0.128607 0.395284 0.159371
0.120707 0.387384 0.175171
0.120707 0.395284 0.167271
0.128607 0.387384 0.175171
0.128607 0.395284 0.175171
0.104907 0.371584 0.190971
0.104907 0.379484 0.190971
0.112807 0.371584 0.190971
0.104907 0.387384 0.183071
0.112807 0.387384 0.183071
0.120707 0.371584 0.190971
0.120707 0.379484 0.183071
0.120707 0.379484 0.190971
0.128607 0.371584 0.190971
0.128607 0.379484 0.190971
0.104907 0.403184 0.159371
0.104907 0.411084 0.151471
0.112807 0.403184 0.159371
0.120707 0.403184 0.151471
0.120707 0.403184 0.159371
0.136507 0.189884 0.190971
0.144407 0.181984 0.190971
0.136507 0.181984 0.198871
0.136507 0.189884 0.198871
0.136507 0.197784 0.190971
0.144407 0.197784 0.190971
0.144407 0.205684 0.190971
0.136507 0.205684 0.198871
0.152307 0.189884 0.190971
0.160207 0.181984 0.190971
0.160207 0.189884 0.190971
0.152307 0.197784 0.190971
0.152307 0.205684 0.190971
0.160207 0.197784 0.190971
0.144407 0.213584 0.190971
0.144407 0.221484 0.190971
0.136507 0.221484 0.198871
0.136507 0.229384 0.198871
0.136507 0.237284 0.198871
0.144407 0.229384 0.198871
0.160207 0.213584 0.190971
0.152307 0.213584 0.198871
0.160207 0.221484 0.198871
0.152307 0.229384 0.198871
0.152307 0.237284 0.198871
0.160207 0.229384 0.198871
0.160207 0.237284 0.198871
0.168107 0.181984 0.190971
0.176007 0.181984 0.190971
0.176007 0.189884 0.190971
0.168107 0.197784 0.190971
0.168107 0.205684 0.190971
0.176007 0.205684 0.190971
0.176007 0.197784 0.198871
0.176007 0.205684 0.198871
0.183907 0.181984 0.198871
0.183907 0.189884 0.198871
0.191807 0.181984 0.198871
0.191807 0.189884 0.198871
0.183907 0.197784 0.190971
0.183907 0.197784 0.198871
0.183907 0.205684 0.198871
0.191807 0.205684 0.198871
0.168107 0.213584 0.198871
0.168107 0.221484 0.198871
0.176007 0.221484 0.198871
0.168107 0.229384 0.198871
0.168107 0.237284 0.198871
0.176007 0.229384 0.198871
0.176007 0.237284 0.198871
0.176007 0.237284 0.206771
0.183907 0.213584 0.198871
0.183907 0.221484 0.198871
0.183907 0.221484 0.206771
0.191807 0.213584 0.198871
0.183907 0.229384 0.198871
0.191807 0.229384 0.198871
0.191807 0.237284 0.206771
0.136507 0.245184 0.198871
0.136507 0.253084 0.198871
0.144407 0.245184 0.198871
0.144407 0.253084 0.198871
0.136507 0.268884 0.206771
0.144407 0.260984 0.198871
0.152307 0.245184 0.198871
0.152307 0.253084 0.198871
0.160207 0.253084 0.198871
0.152307 0.268884 0.206771
0.160207 0.260984 0.198871
0.160207 0.268884 0.198871
0.160207 0.268884 0.206771
0.136507 0.276784 0.206771
0.136507 0.284684 0.206771
0.144407 0.276784 0.206771
0.144407 0.284684 0.206771
0.136507 0.292584 0.206771
0.136507 0.300484 0.206771
0.144407 0.292584 0.206771
0.152307 0.276784 0.206771
0.152307 0.284684 0.206771
0.160207 0.276784 0.206771
0.160207 0.284684 0.206771
0.152307 0.292584 0.206771
0.152307 0.300484 0.206771
0.160207 0.292584 0.206771
0.160207 0.300484 0.206771
0.168107 0.245184 0.198871
0.168107 0.253084 0.198871
0.176007 0.245184 0.206771
0.176007 0.253084 0.198871
0.168107 0.260984 0.206771
0.168107 0.268884 0.206771
0.176007 0.260984 0.206771
0.176007 0.268884 0.206771
0.183907 0.253084 0.206771
0.191807 0.245184 0.206771
0.191807 0.253084 0.206771
0.183907 0.268884 0.206771
0.191807 0.260984 0.206771
0.191807 0.268884 0.206771
0.168107 0.276784 0.206771
0.168107 0.284684 0.206771
0.168107 0.292584 0.206771
0.168107 0.300484 0.206771
0.176007 0.292584 0.206771
0.176007 0.300484 0.206771
0.183907 0.276784 0.206771
0.183907 0.284684 0.206771
0.191807 0.276784 0.206771
0.183907 0.292584 0.206771
0.183907 0.300484 0.206771
0.191807 0.292584 0.206771
0.191807 0.300484 0.206771
0.199707 0.181984 0.198871
0.199707 0.189884 0.198871
0.207607 0.181984 0.198871
0.207607 0.189884 0.198871
0.199707 0.197784 0.198871
0.199707 0.205684 0.198871
0.207607 0.197784 0.198871
0.207607 0.205684 0.206771
0.215507 0.181984 0.198871
0.215507 0.189884 0.198871
0.223407 0.181984 0.198871
0.223407 0.181984 0.206771
0.223407 0.189884 0.198871
0.223407 0.189884 0.206771
0.215507 0.205684 0.206771
0.223407 0.197784 0.206771
0.223407 0.205684 0.206771
0.199707 0.213584 0.198871
0.199707 0.221484 0.198871
0.199707 0.221484 0.206771
0.207607 0.221484 0.206771
0.199707 0.229384 0.206771
0.199707 0.237284 0.206771
0.207607 0.229384 0.206771
0.215507 0.213584 0.198871
0.215507 0.221484 0.206771
0.223407 0.213584 0.206771
0.223407 0.221484 0.206771
0.215507 0.229384 0.206771
0.215507 0.237284 0.206771
0.223407 0.229384 0.206771
0.223407 0.237284 0.206771
0.231307 0.181984 0.206771
0.231307 0.189884 0.206771
0.239207 0.181984 0.206771
0.231307 0.197784 0.206771
0.239207 0.197784 0.206771
0.239207 0.205684 0.206771
0.247107 0.181984 0.206771
0.247107 0.189884 0.206771
0.255007 0.181984 0.206771
0.255007 0.189884 0.206771
0.247107 0.197784 0.206771
0.247107 0.205684 0.206771
0.255007 0.205684 0.206771
0.231307 0.213584 0.206771
0.231307 0.221484 0.206771
0.239207 0.213584 0.206771
0.239207 0.221484 0.206771
0.231307 0.237284 0.206771
0.239207 0.229384 0.206771
0.247107 0.221484 0.206771
0.255007 0.213584 0.206771
0.247107 0.229384 0.206771
0.247107 0.237284 0.206771
0.255007 0.237284 0.206771
0.255007 0.197784 0.214671
0.231307 0.237284 0.214671
0.239207 0.237284 0.214671
0.255007 0.221484 0.214671
0.199707 0.245184 0.206771
0.199707 0.253084 0.206771
0.207607 0.245184 0.206771
0.207607 0.253084 0.206771
0.199707 0.260984 0.206771
0.199707 0.268884 0.206771
0.207607 0.260984 0.206771
0.215507 0.245184 0.206771
0.215507 0.253084 0.206771
0.223407 0.245184 0.206771
0.215507 0.260984 0.206771
0.223407 0.260984 0.206771
0.199707 0.284684 0.206771
0.207607 0.284684 0.206771
0.199707 0.292584 0.206771
0.199707 0.300484 0.206771
0.207607 0.300484 0.206771
0.215507 0.292584 0.206771
0.223407 0.292584 0.206771
0.223407 0.300484 0.206771
0.231307 0.245184 0.206771
0.231307 0.253084 0.206771
0.239207 0.253084 0.206771
0.231307 0.260984 0.206771
0.239207 0.260984 0.206771
0.239207 0.268884 0.206771
0.247107 0.245184 0.206771
0.247107 0.260984 0.206771
0.247107 0.268884 0.206771
0.231307 0.276784 0.206771
0.239207 0.284684 0.206771
0.231307 0.292584 0.206771
0.231307 0.300484 0.206771
0.239207 0.292584 0.206771
0.239207 0.300484 0.206771
0.247107 0.284684 0.206771
0.255007 0.276784 0.206771
0.255007 0.284684 0.206771
0.247107 0.292584 0.206771
0.247107 0.300484 0.206771
0.255007 0.300484 0.206771
0.215507 0.268884 0.214671
0.223407 0.268884 0.214671
0.199707 0.276784 0.214671
0.207607 0.276784 0.214671
0.215507 0.276784 0.214671
0.223407 0.276784 0.214671
0.223407 0.284684 0.214671
0.247107 0.245184 0.214671
0.247107 0.253084 0.214671
0.255007 0.245184 0.214671
0.247107 0.260984 0.214671
0.255007 0.260984 0.214671
0.255007 0.268884 0.214671
0.231307 0.276784 0.214671
0.239207 0.276784 0.214671
0.136507 0.379484 0.025071
0.136507 0.387384 0.025071
0.136507 0.387384 0.032971
0.144407 0.387384 0.025071
0.144407 0.387384 0.032971
0.136507 0.395284 0.040871
0.144407 0.395284 0.040871
0.152307 0.379484 0.025071
0.160207 0.379484 0.025071
0.160207 0.379484 0.032971
0.152307 0.387384 0.025071
0.160207 0.387384 0.032971
0.152307 0.395284 0.040871
0.160207 0.395284 0.048771
0.136507 0.403184 0.048771
0.152307 0.403184 0.048771
0.160207 0.403184 0.048771
0.136507 0.403184 0.056671
0.136507 0.411084 0.064571
0.144407 0.403184 0.056671
0.144407 0.411084 0.064571
0.136507 0.411084 0.072471
0.144407 0.411084 0.072471
0.144407 0.411084 0.080371
0.136507 0.418984 0.080371
0.152307 0.403184 0.056671
0.160207 0.403184 0.056671
0.160207 0.411084 0.064571
0.152307 0.411084 0.072471
0.152307 0.411084 0.080371
0.160207 0.403184 0.072471
0.168107 0.371584 0.025071
0.168107 0.379484 0.032971
0.176007 0.371584 0.025071
0.176007 0.379484 0.025071
0.176007 0.379484 0.032971
0.168107 0.387384 0.040871
0.168107 0.395284 0.048771
0.176007 0.395284 0.048771
0.183907 0.371584 0.025071
0.183907 0.371584 0.032971
0.183907 0.379484 0.032971
0.191807 0.371584 0.025071
0.191807 0.379484 0.032971
0.191807 0.379484 0.040871
0.183907 0.387384 0.040871
0.183907 0.387384 0.048771
0.191807 0.387384 0.040871
0.191807 0.387384 0.048771
0.176007 0.395284 0.056671
0.183907 0.395284 0.056671
0.191807 0.395284 0.056671
0.191807 0.395284 0.064571
0.168107 0.403184 0.056671
0.168107 0.403184 0.064571
0.176007 0.403184 0.064571
0.168107 0.403184 0.080371
0.176007 0.403184 0.072471
0.176007 0.403184 0.080371
0.183907 0.403184 0.064571
0.191807 0.403184 0.064571
0.183907 0.403184 0.072471
0.183907 0.403184 0.080371
0.191807 0.403184 0.080371
0.160207 0.395284 0.143571
0.144407 0.411084 0.088271
0.136507 0.411084 0.104071
0.136507 0.411084 0.111971
0.144407 0.411084 0.104071
0.136507 0.418984 0.096171
0.152307 0.411084 0.096171
0.160207 0.411084 0.088271
0.160207 0.411084 0.096171
0.152307 0.411084 0.104071
0.152307 0.411084 0.111971
0.160207 0.403184 0.111971
0.160207 0.411084 0.104071
0.136507 0.411084 0.119871
0.144407 0.403184 0.127771
0.144407 0.411084 0.119871
0.144407 0.411084 0.127771
0.136507 0.411084 0.135671
0.144407 0.403184 0.143571
0.144407 0.411084 0.143571
0.152307 0.403184 0.127771
0.152307 0.411084 0.119871
0.152307 0.411084 0.127771
0.160207 0.403184 0.119871
0.160207 0.403184 0.127771
0.152307 0.403184 0.135671
0.160207 0.403184 0.143571
0.176007 0.395284 0.143571
0.191807 0.395284 0.127771
0.183907 0.395284 0.143571
0.191807 0.395284 0.135671
0.191807 0.395284 0.143571
0.168107 0.411084 0.088271
0.176007 0.403184 0.088271
0.176007 0.403184 0.096171
0.168107 0.403184 0.104071
0.168107 0.411084 0.104071
0.176007 0.403184 0.104071
0.176007 0.403184 0.111971
0.183907 0.403184 0.096171
0.191807 0.403184 0.088271
0.183907 0.403184 0.104071
0.183907 0.403184 0.111971
0.191807 0.403184 0.111971
0.168107 0.403184 0.119871
0.168107 0.403184 0.127771
0.176007 0.403184 0.119871
0.176007 0.403184 0.127771
0.168107 0.403184 0.135671
0.168107 0.403184 0.143571
0.183907 0.403184 0.119871
0.183907 0.403184 0.127771
0.191807 0.403184 0.119871
0.207607 0.363684 0.025071
0.215507 0.355784 0.025071
0.215507 0.363684 0.025071
0.223407 0.355784 0.025071
0.223407 0.363684 0.032971
0.231307 0.355784 0.025071
0.231307 0.363684 0.025071
0.231307 0.363684 0.032971
0.239207 0.355784 0.025071
0.239207 0.363684 0.032971
0.247107 0.347884 0.025071
0.255007 0.347884 0.025071
0.247107 0.355784 0.025071
0.247107 0.363684 0.032971
0.255007 0.355784 0.032971
0.255007 0.363684 0.032971
0.247107 0.363684 0.040871
0.199707 0.371584 0.025071
0.199707 0.371584 0.032971
0.199707 0.379484 0.032971
0.207607 0.371584 0.032971
0.199707 0.387384 0.048771
0.207607 0.387384 0.040871
0.207607 0.387384 0.048771
0.215507 0.371584 0.032971
0.215507 0.379484 0.032971
0.223407 0.371584 0.032971
0.215507 0.379484 0.040871
0.223407 0.379484 0.048771
0.215507 0.387384 0.048771
0.199707 0.395284 0.056671
0.199707 0.395284 0.064571
0.207607 0.387384 0.056671
0.207607 0.395284 0.064571
0.199707 0.395284 0.080371
0.207607 0.395284 0.072471
0.207607 0.395284 0.080371
0.215507 0.395284 0.056671
0.215507 0.395284 0.064571
0.223407 0.387384 0.056671
0.215507 0.395284 0.072471
0.215507 0.395284 0.080371
0.239207 0.371584 0.032971
0.231307 0.371584 0.040871
0.231307 0.379484 0.048771
0.239207 0.379484 0.040871
0.239207 0.379484 0.048771
0.239207 0.387384 0.048771
0.247107 0.371584 0.040871
0.247107 0.371584 0.048771
0.255007 0.371584 0.040871
0.255007 0.379484 0.048771
0.231307 0.387384 0.056671
0.239207 0.387384 0.056671
0.239207 0.387384 0.064571
0.231307 0.387384 0.072471
0.231307 0.395284 0.080371
0.239207 0.387384 0.080371
0.247107 0.379484 0.056671
0.255007 0.379484 0.056671
0.255007 0.379484 0.080371
0.247107 0.387384 0.064571
0.247107 0.387384 0.072471
0.247107 0.387384 0.080371
0.255007 0.387384 0.072471
0.255007 0.387384 0.080371
0.199707 0.395284 0.096171
0.207607 0.395284 0.088271
0.199707 0.395284 0.104071
0.199707 0.395284 0.111971
0.207607 0.395284 0.111971
0.223407 0.387384 0.088271
0.223407 0.395284 0.088271
0.223407 0.395284 0.096171
0.215507 0.395284 0.111971
0.223407 0.387384 0.104071
0.223407 0.387384 0.111971
0.223407 0.395284 0.104071
0.199707 0.395284 0.119871
0.199707 0.395284 0.127771
0.207607 0.395284 0.119871
0.207607 0.395284 0.127771
0.199707 0.387384 0.143571
0.199707 0.395284 0.135671
0.207607 0.387384 0.135671
0.207607 0.395284 0.135671
0.215507 0.387384 0.119871
0.215507 0.387384 0.127771
0.215507 0.395284 0.127771
0.223407 0.387384 0.119871
0.223407 0.387384 0.127771
0.215507 0.387384 0.143571
0.215507 0.395284 0.135671
0.223407 0.387384 0.135671
0.223407 0.387384 0.143571
0.199707 0.403184 0.096171
0.207607 0.403184 0.088271
0.207607 0.403184 0.096171
0.207607 0.403184 0.104071
0.199707 0.403184 0.135671
0.231307 0.395284 0.096171
0.239207 0.387384 0.088271
0.231307 0.387384 0.111971
0.231307 0.395284 0.104071
0.239207 0.387384 0.104071
0.247107 0.379484 0.111971
0.255007 0.379484 0.104071
0.255007 0.379484 0.111971
0.247107 0.387384 0.096171
0.255007 0.387384 0.088271
0.255007 0.387384 0.096171
0.231307 0.379484 0.143571
0.231307 0.387384 0.119871
0.231307 0.387384 0.127771
0.239207 0.387384 0.119871
0.239207 0.387384 0.127771
