ply
format ascii 1.0
element vertex 1617
property float x
property float y
property float z
end_header
-0.055393 -0.120816 -0.529129
-0.042893 -0.133316 -0.529129
-0.042893 -0.120816 -0.529129
-0.055393 -0.120816 -0.516629
-0.030393 -0.158316 -0.541629
-0.030393 -0.145816 -0.541629
-0.030393 -0.145816 -0.529129
-0.017893 -0.158316 -0.541629
-0.017893 -0.145816 -0.541629
-0.017893 -0.145816 -0.529129
-0.030393 -0.133316 -0.529129
-0.030393 -0.120816 -0.529129
-0.017893 -0.133316 -0.541629
-0.017893 -0.120816 -0.541629
-0.017893 -0.120816 -0.529129
-0.055393 -0.108316 -0.516629
-0.055393 -0.108316 -0.504129
-0.055393 -0.095816 -0.504129
-0.042893 -0.108316 -0.516629
-0.042893 -0.095816 -0.504129
-0.030393 -0.108316 -0.529129
-0.017893 -0.108316 -0.529129
-0.030393 -0.108316 -0.516629
-0.030393 -0.095816 -0.504129
-0.017893 -0.108316 -0.516629
-0.017893 -0.095816 -0.504129
-0.055393 -0.095816 -0.491629
-0.042893 -0.095816 -0.491629
-0.055393 -0.083316 -0.479129
-0.042893 -0.083316 -0.491629
-0.042893 -0.083316 -0.479129
-0.055393 -0.083316 -0.466629
-0.055393 -0.070816 -0.454129
-0.042893 -0.083316 -0.466629
-0.042893 -0.070816 -0.454129
-0.030393 -0.095816 -0.491629
-0.017893 -0.095816 -0.491629
-0.030393 -0.083316 -0.491629
-0.030393 -0.083316 -0.479129
-0.017893 -0.083316 -0.479129
-0.030393 -0.083316 -0.466629
-0.030393 -0.070816 -0.454129
-0.017893 -0.083316 -0.466629
-0.017893 -0.070816 -0.466629
-0.017893 -0.070816 -0.454129
-0.005393 -0.158316 -0.541629
-0.005393 -0.145816 -0.541629
-0.005393 -0.145816 -0.529129
0.007107 -0.158316 -0.541629
0.007107 -0.145816 -0.541629
-0.005393 -0.133316 -0.529129
-0.005393 -0.120816 -0.541629
-0.005393 -0.120816 -0.529129
0.007107 -0.133316 -0.541629
0.007107 -0.120816 -0.541629
0.007107 -0.120816 -0.529129
0.019607 -0.158316 -0.541629
0.019607 -0.145816 -0.541629
0.032107 -0.158316 -0.541629
0.032107 -0.145816 -0.541629
0.019607 -0.133316 -0.541629
0.019607 -0.120816 -0.529129
0.032107 -0.133316 -0.541629
0.032107 -0.120816 -0.529129
-0.005393 -0.108316 -0.529129
0.007107 -0.108316 -0.529129
0.007107 -0.095816 -0.529129
-0.005393 -0.108316 -0.516629
-0.005393 -0.095816 -0.516629
-0.005393 -0.095816 -0.504129
0.007107 -0.108316 -0.516629
0.007107 -0.095816 -0.504129
0.019607 -0.108316 -0.529129
0.019607 -0.108316 -0.516629
0.019607 -0.095816 -0.504129
0.032107 -0.108316 -0.516629
0.032107 -0.108316 -0.504129
0.032107 -0.095816 -0.504129
-0.005393 -0.095816 -0.491629
0.007107 -0.095816 -0.491629
-0.005393 -0.083316 -0.491629
-0.005393 -0.083316 -0.479129
0.007107 -0.083316 -0.479129
-0.005393 -0.083316 -0.466629
-0.005393 -0.070816 -0.466629
-0.005393 -0.070816 -0.454129
0.007107 -0.083316 -0.466629
0.007107 -0.083316 -0.454129
0.007107 -0.070816 -0.454129
0.019607 -0.095816 -0.491629
0.032107 -0.095816 -0.491629
0.032107 -0.095816 -0.479129
0.019607 -0.083316 -0.479129
0.032107 -0.083316 -0.479129
0.019607 -0.083316 -0.466629
0.019607 -0.083316 -0.454129
0.019607 -0.070816 -0.454129
0.032107 -0.083316 -0.466629
0.032107 -0.083316 -0.454129
0.032107 -0.070816 -0.454129
0.069607 -0.208316 -0.554129
0.082107 -0.195816 -0.554129
0.044607 -0.183316 -0.541629
0.044607 -0.170816 -0.541629
0.057107 -0.183316 -0.541629
0.057107 -0.170816 -0.541629
0.069607 -0.195816 -0.541629
0.082107 -0.195816 -0.541629
0.069607 -0.183316 -0.541629
0.069607 -0.170816 -0.541629
0.069607 -0.170816 -0.529129
0.082107 -0.183316 -0.541629
0.082107 -0.170816 -0.529129
0.082107 -0.170816 -0.516629
0.119607 -0.220816 -0.541629
0.132107 -0.233316 -0.529129
0.132107 -0.220816 -0.541629
0.094607 -0.208316 -0.541629
0.094607 -0.195816 -0.541629
0.107107 -0.208316 -0.541629
0.107107 -0.195816 -0.541629
0.107107 -0.195816 -0.529129
0.094607 -0.183316 -0.529129
0.094607 -0.170816 -0.529129
0.107107 -0.183316 -0.529129
0.094607 -0.170816 -0.516629
0.107107 -0.183316 -0.516629
0.107107 -0.170816 -0.516629
0.119607 -0.208316 -0.541629
0.119607 -0.208316 -0.529129
0.119607 -0.195816 -0.541629
0.119607 -0.195816 -0.529129
0.132107 -0.208316 -0.541629
0.132107 -0.208316 -0.529129
0.132107 -0.195816 -0.529129
0.119607 -0.195816 -0.516629
0.132107 -0.195816 -0.516629
0.119607 -0.183316 -0.529129
0.119607 -0.183316 -0.516629
0.119607 -0.170816 -0.516629
0.119607 -0.170816 -0.504129
0.132107 -0.183316 -0.504129
0.132107 -0.170816 -0.504129
0.169607 -0.295816 -0.454129
0.182107 -0.295816 -0.454129
0.169607 -0.270816 -0.491629
0.169607 -0.283316 -0.454129
0.169607 -0.270816 -0.454129
0.182107 -0.283316 -0.454129
0.182107 -0.270816 -0.466629
0.182107 -0.270816 -0.454129
0.194607 -0.270816 -0.479129
0.207107 -0.270816 -0.454129
0.219607 -0.283316 -0.454129
0.219607 -0.270816 -0.454129
0.232107 -0.283316 -0.454129
0.157107 -0.245816 -0.529129
0.157107 -0.258316 -0.516629
0.157107 -0.245816 -0.516629
0.144607 -0.220816 -0.529129
0.144607 -0.220816 -0.516629
0.157107 -0.233316 -0.516629
0.157107 -0.220816 -0.516629
0.157107 -0.220816 -0.504129
0.169607 -0.258316 -0.516629
0.169607 -0.258316 -0.504129
0.169607 -0.245816 -0.516629
0.169607 -0.245816 -0.504129
0.182107 -0.245816 -0.504129
0.169607 -0.233316 -0.504129
0.169607 -0.220816 -0.504129
0.169607 -0.258316 -0.491629
0.182107 -0.258316 -0.491629
0.182107 -0.258316 -0.479129
0.182107 -0.245816 -0.491629
0.182107 -0.245816 -0.479129
0.182107 -0.258316 -0.466629
0.182107 -0.258316 -0.454129
0.182107 -0.245816 -0.466629
0.169607 -0.233316 -0.491629
0.169607 -0.220816 -0.491629
0.182107 -0.233316 -0.491629
0.182107 -0.233316 -0.479129
0.182107 -0.220816 -0.479129
0.182107 -0.233316 -0.466629
0.182107 -0.220816 -0.466629
0.144607 -0.208316 -0.529129
0.144607 -0.208316 -0.516629
0.144607 -0.208316 -0.504129
0.144607 -0.195816 -0.516629
0.144607 -0.195816 -0.504129
0.157107 -0.208316 -0.504129
0.144607 -0.183316 -0.504129
0.144607 -0.170816 -0.504129
0.157107 -0.208316 -0.491629
0.157107 -0.208316 -0.479129
0.157107 -0.195816 -0.491629
0.144607 -0.183316 -0.491629
0.144607 -0.170816 -0.491629
0.157107 -0.183316 -0.491629
0.157107 -0.170816 -0.491629
0.157107 -0.170816 -0.479129
0.169607 -0.208316 -0.491629
0.169607 -0.208316 -0.479129
0.169607 -0.195816 -0.491629
0.169607 -0.195816 -0.479129
0.182107 -0.208316 -0.479129
0.182107 -0.195816 -0.479129
0.182107 -0.208316 -0.466629
0.182107 -0.195816 -0.466629
0.169607 -0.183316 -0.479129
0.169607 -0.170816 -0.479129
0.182107 -0.183316 -0.479129
0.182107 -0.170816 -0.479129
0.182107 -0.183316 -0.466629
0.182107 -0.170816 -0.466629
0.194607 -0.258316 -0.479129
0.194607 -0.245816 -0.479129
0.194607 -0.258316 -0.466629
0.194607 -0.258316 -0.454129
0.194607 -0.245816 -0.466629
0.194607 -0.245816 -0.454129
0.207107 -0.258316 -0.466629
0.207107 -0.258316 -0.454129
0.207107 -0.245816 -0.454129
0.194607 -0.233316 -0.479129
0.194607 -0.233316 -0.454129
0.194607 -0.220816 -0.454129
0.207107 -0.233316 -0.454129
0.207107 -0.220816 -0.454129
0.219607 -0.245816 -0.454129
0.194607 -0.208316 -0.466629
0.194607 -0.195816 -0.466629
0.207107 -0.208316 -0.466629
0.207107 -0.208316 -0.454129
0.207107 -0.195816 -0.454129
0.194607 -0.183316 -0.466629
0.194607 -0.170816 -0.466629
0.194607 -0.170816 -0.454129
0.207107 -0.183316 -0.466629
0.207107 -0.183316 -0.454129
0.219607 -0.208316 -0.454129
0.219607 -0.195816 -0.454129
0.219607 -0.183316 -0.466629
0.219607 -0.183316 -0.454129
0.044607 -0.158316 -0.541629
0.044607 -0.145816 -0.541629
0.057107 -0.158316 -0.541629
0.057107 -0.158316 -0.529129
0.057107 -0.145816 -0.541629
0.044607 -0.133316 -0.541629
0.044607 -0.120816 -0.529129
0.057107 -0.133316 -0.541629
0.057107 -0.133316 -0.529129
0.057107 -0.120816 -0.529129
0.057107 -0.120816 -0.516629
0.069607 -0.158316 -0.541629
0.069607 -0.158316 -0.529129
0.069607 -0.145816 -0.529129
0.082107 -0.158316 -0.529129
0.082107 -0.145816 -0.529129
0.082107 -0.158316 -0.516629
0.082107 -0.145816 -0.516629
0.069607 -0.133316 -0.529129
0.082107 -0.133316 -0.529129
0.069607 -0.120816 -0.516629
0.069607 -0.120816 -0.504129
0.082107 -0.133316 -0.516629
0.082107 -0.120816 -0.516629
0.082107 -0.120816 -0.504129
0.044607 -0.108316 -0.516629
0.044607 -0.108316 -0.504129
0.044607 -0.095816 -0.504129
0.057107 -0.108316 -0.516629
0.057107 -0.108316 -0.504129
0.069607 -0.108316 -0.504129
0.044607 -0.095816 -0.491629
0.044607 -0.095816 -0.479129
0.057107 -0.108316 -0.491629
0.057107 -0.095816 -0.491629
0.057107 -0.095816 -0.479129
0.057107 -0.095816 -0.466629
0.044607 -0.083316 -0.466629
0.044607 -0.083316 -0.454129
0.044607 -0.070816 -0.454129
0.057107 -0.083316 -0.454129
0.069607 -0.108316 -0.491629
0.069607 -0.108316 -0.479129
0.069607 -0.095816 -0.479129
0.082107 -0.108316 -0.491629
0.082107 -0.108316 -0.479129
0.082107 -0.095816 -0.479129
0.069607 -0.095816 -0.466629
0.069607 -0.095816 -0.454129
0.082107 -0.095816 -0.466629
0.082107 -0.095816 -0.454129
0.069607 -0.083316 -0.454129
0.094607 -0.158316 -0.516629
0.094607 -0.145816 -0.516629
0.107107 -0.158316 -0.516629
0.107107 -0.145816 -0.516629
0.107107 -0.145816 -0.504129
0.094607 -0.133316 -0.516629
0.094607 -0.120816 -0.504129
0.107107 -0.133316 -0.516629
0.107107 -0.133316 -0.504129
0.107107 -0.120816 -0.504129
0.119607 -0.158316 -0.504129
0.119607 -0.145816 -0.504129
0.132107 -0.158316 -0.504129
0.132107 -0.145816 -0.504129
0.094607 -0.120816 -0.491629
0.094607 -0.120816 -0.479129
0.107107 -0.120816 -0.491629
0.107107 -0.120816 -0.479129
0.107107 -0.120816 -0.466629
0.119607 -0.145816 -0.491629
0.132107 -0.158316 -0.491629
0.132107 -0.145816 -0.491629
0.119607 -0.133316 -0.491629
0.119607 -0.133316 -0.479129
0.119607 -0.120816 -0.479129
0.132107 -0.133316 -0.491629
0.132107 -0.133316 -0.479129
0.119607 -0.120816 -0.466629
0.119607 -0.120816 -0.454129
0.132107 -0.133316 -0.466629
0.132107 -0.120816 -0.466629
0.132107 -0.120816 -0.454129
0.094607 -0.108316 -0.479129
0.107107 -0.108316 -0.479129
0.094607 -0.108316 -0.466629
0.094607 -0.108316 -0.454129
0.094607 -0.095816 -0.454129
0.107107 -0.108316 -0.466629
0.107107 -0.108316 -0.454129
0.119607 -0.108316 -0.454129
0.144607 -0.158316 -0.491629
0.144607 -0.145816 -0.491629
0.157107 -0.158316 -0.491629
0.157107 -0.158316 -0.479129
0.157107 -0.145816 -0.491629
0.157107 -0.145816 -0.479129
0.157107 -0.145816 -0.466629
0.157107 -0.145816 -0.454129
0.144607 -0.133316 -0.479129
0.144607 -0.133316 -0.466629
0.144607 -0.133316 -0.454129
0.157107 -0.133316 -0.454129
0.169607 -0.158316 -0.479129
0.182107 -0.158316 -0.479129
0.169607 -0.158316 -0.466629
0.169607 -0.145816 -0.466629
0.169607 -0.145816 -0.454129
0.182107 -0.158316 -0.466629
0.182107 -0.158316 -0.454129
0.194607 -0.158316 -0.454129
-0.267893 -0.258316 -0.266629
-0.267893 -0.245816 -0.254129
-0.267893 -0.233316 -0.266629
-0.267893 -0.233316 -0.254129
-0.267893 -0.220816 -0.266629
-0.267893 -0.220816 -0.254129
-0.280393 -0.208316 -0.254129
-0.280393 -0.195816 -0.254129
-0.267893 -0.208316 -0.254129
-0.267893 -0.195816 -0.254129
-0.217893 -0.320816 -0.266629
-0.217893 -0.283316 -0.304129
-0.242893 -0.295816 -0.266629
-0.242893 -0.295816 -0.254129
-0.242893 -0.283316 -0.279129
-0.242893 -0.270816 -0.279129
-0.255393 -0.270816 -0.266629
-0.255393 -0.270816 -0.254129
-0.242893 -0.283316 -0.266629
-0.242893 -0.283316 -0.254129
-0.242893 -0.270816 -0.266629
-0.242893 -0.270816 -0.254129
-0.230393 -0.295816 -0.279129
-0.217893 -0.308316 -0.279129
-0.217893 -0.295816 -0.291629
-0.230393 -0.308316 -0.254129
-0.230393 -0.295816 -0.266629
-0.217893 -0.308316 -0.266629
-0.230393 -0.283316 -0.291629
-0.230393 -0.283316 -0.279129
-0.230393 -0.270816 -0.279129
-0.217893 -0.283316 -0.291629
-0.217893 -0.283316 -0.279129
-0.217893 -0.270816 -0.291629
-0.217893 -0.270816 -0.279129
-0.230393 -0.283316 -0.266629
-0.217893 -0.270816 -0.254129
-0.192893 -0.320816 -0.316629
-0.167893 -0.320816 -0.329129
-0.180393 -0.333316 -0.316629
-0.180393 -0.333316 -0.304129
-0.180393 -0.320816 -0.316629
-0.180393 -0.320816 -0.304129
-0.167893 -0.333316 -0.316629
-0.167893 -0.333316 -0.304129
-0.167893 -0.320816 -0.316629
-0.205393 -0.320816 -0.291629
-0.205393 -0.308316 -0.316629
-0.205393 -0.295816 -0.304129
-0.192893 -0.308316 -0.316629
-0.192893 -0.308316 -0.304129
-0.192893 -0.295816 -0.304129
-0.180393 -0.308316 -0.316629
-0.180393 -0.308316 -0.304129
-0.180393 -0.295816 -0.304129
-0.167893 -0.308316 -0.316629
-0.167893 -0.308316 -0.304129
-0.205393 -0.308316 -0.291629
-0.205393 -0.283316 -0.291629
-0.205393 -0.283316 -0.279129
-0.205393 -0.270816 -0.279129
-0.192893 -0.283316 -0.291629
-0.192893 -0.283316 -0.279129
-0.167893 -0.308316 -0.291629
-0.255393 -0.245816 -0.279129
-0.242893 -0.258316 -0.279129
-0.242893 -0.245816 -0.279129
-0.255393 -0.258316 -0.266629
-0.255393 -0.258316 -0.254129
-0.255393 -0.245816 -0.266629
-0.255393 -0.245816 -0.254129
-0.242893 -0.245816 -0.266629
-0.255393 -0.233316 -0.266629
-0.255393 -0.220816 -0.266629
-0.255393 -0.220816 -0.254129
-0.242893 -0.233316 -0.266629
-0.242893 -0.233316 -0.254129
-0.242893 -0.220816 -0.254129
-0.230393 -0.258316 -0.279129
-0.230393 -0.258316 -0.266629
-0.230393 -0.258316 -0.254129
-0.230393 -0.245816 -0.266629
-0.230393 -0.245816 -0.254129
-0.217893 -0.258316 -0.266629
-0.217893 -0.258316 -0.254129
-0.217893 -0.245816 -0.254129
-0.230393 -0.233316 -0.254129
-0.255393 -0.208316 -0.254129
-0.317893 -0.283316 -0.154129
-0.317893 -0.270816 -0.154129
-0.280393 -0.345816 -0.154129
-0.267893 -0.358316 -0.154129
-0.267893 -0.345816 -0.154129
-0.267893 -0.320816 -0.179129
-0.280393 -0.333316 -0.154129
-0.280393 -0.320816 -0.166629
-0.280393 -0.320816 -0.154129
-0.267893 -0.333316 -0.166629
-0.267893 -0.333316 -0.154129
-0.267893 -0.320816 -0.166629
-0.267893 -0.295816 -0.204129
-0.267893 -0.270816 -0.229129
-0.280393 -0.270816 -0.204129
-0.267893 -0.283316 -0.216629
-0.267893 -0.283316 -0.204129
-0.267893 -0.270816 -0.216629
-0.267893 -0.270816 -0.204129
-0.305393 -0.295816 -0.154129
-0.292893 -0.308316 -0.154129
-0.292893 -0.295816 -0.166629
-0.292893 -0.295816 -0.154129
-0.292893 -0.270816 -0.191629
-0.292893 -0.270816 -0.179129
-0.305393 -0.283316 -0.166629
-0.305393 -0.283316 -0.154129
-0.305393 -0.270816 -0.166629
-0.292893 -0.283316 -0.166629
-0.292893 -0.283316 -0.154129
-0.280393 -0.308316 -0.179129
-0.280393 -0.295816 -0.179129
-0.267893 -0.308316 -0.191629
-0.267893 -0.308316 -0.179129
-0.267893 -0.295816 -0.191629
-0.267893 -0.295816 -0.179129
-0.280393 -0.308316 -0.166629
-0.280393 -0.308316 -0.154129
-0.280393 -0.295816 -0.166629
-0.280393 -0.283316 -0.191629
-0.280393 -0.283316 -0.179129
-0.280393 -0.270816 -0.191629
-0.267893 -0.283316 -0.191629
-0.342893 -0.345816 -0.104129
-0.355393 -0.333316 -0.104129
-0.355393 -0.320816 -0.116629
-0.355393 -0.320816 -0.104129
-0.342893 -0.333316 -0.116629
-0.342893 -0.333316 -0.104129
-0.330393 -0.358316 -0.116629
-0.330393 -0.358316 -0.104129
-0.330393 -0.345816 -0.104129
-0.317893 -0.358316 -0.116629
-0.317893 -0.358316 -0.104129
-0.317893 -0.333316 -0.129129
-0.317893 -0.320816 -0.129129
-0.330393 -0.333316 -0.116629
-0.317893 -0.333316 -0.116629
-0.342893 -0.345816 -0.091629
-0.355393 -0.320816 -0.091629
-0.355393 -0.320816 -0.079129
-0.342893 -0.333316 -0.091629
-0.342893 -0.333316 -0.079129
-0.355393 -0.333316 -0.066629
-0.355393 -0.320816 -0.066629
-0.355393 -0.320816 -0.054129
-0.342893 -0.333316 -0.066629
-0.342893 -0.333316 -0.054129
-0.330393 -0.358316 -0.091629
-0.330393 -0.358316 -0.079129
-0.330393 -0.345816 -0.091629
-0.330393 -0.345816 -0.079129
-0.317893 -0.358316 -0.091629
-0.330393 -0.358316 -0.066629
-0.330393 -0.358316 -0.054129
-0.330393 -0.345816 -0.066629
-0.330393 -0.345816 -0.054129
-0.317893 -0.358316 -0.066629
-0.317893 -0.358316 -0.054129
-0.355393 -0.295816 -0.129129
-0.342893 -0.295816 -0.129129
-0.355393 -0.283316 -0.129129
-0.355393 -0.270816 -0.129129
-0.342893 -0.283316 -0.141629
-0.342893 -0.283316 -0.129129
-0.342893 -0.270816 -0.141629
-0.342893 -0.270816 -0.129129
-0.330393 -0.308316 -0.129129
-0.330393 -0.295816 -0.129129
-0.317893 -0.308316 -0.129129
-0.317893 -0.295816 -0.141629
-0.330393 -0.283316 -0.141629
-0.330393 -0.283316 -0.129129
-0.330393 -0.270816 -0.141629
-0.317893 -0.283316 -0.141629
-0.317893 -0.270816 -0.141629
-0.305393 -0.345816 -0.129129
-0.292893 -0.358316 -0.129129
-0.292893 -0.345816 -0.141629
-0.292893 -0.345816 -0.129129
-0.305393 -0.345816 -0.116629
-0.305393 -0.333316 -0.129129
-0.305393 -0.320816 -0.141629
-0.305393 -0.320816 -0.129129
-0.292893 -0.333316 -0.141629
-0.292893 -0.333316 -0.129129
-0.292893 -0.320816 -0.141629
-0.280393 -0.358316 -0.129129
-0.280393 -0.345816 -0.141629
-0.267893 -0.358316 -0.141629
-0.280393 -0.333316 -0.141629
-0.280393 -0.320816 -0.141629
-0.305393 -0.308316 -0.141629
-0.305393 -0.295816 -0.141629
-0.292893 -0.308316 -0.141629
-0.342893 -0.233316 -0.154129
-0.342893 -0.220816 -0.154129
-0.330393 -0.258316 -0.154129
-0.330393 -0.245816 -0.154129
-0.317893 -0.258316 -0.166629
-0.317893 -0.258316 -0.154129
-0.317893 -0.245816 -0.166629
-0.317893 -0.245816 -0.154129
-0.330393 -0.220816 -0.179129
-0.317893 -0.233316 -0.191629
-0.317893 -0.233316 -0.179129
-0.317893 -0.220816 -0.191629
-0.317893 -0.220816 -0.179129
-0.330393 -0.233316 -0.166629
-0.330393 -0.233316 -0.154129
-0.330393 -0.220816 -0.166629
-0.330393 -0.220816 -0.154129
-0.317893 -0.233316 -0.166629
-0.355393 -0.195816 -0.154129
-0.342893 -0.208316 -0.154129
-0.342893 -0.195816 -0.166629
-0.342893 -0.195816 -0.154129
-0.355393 -0.183316 -0.154129
-0.355393 -0.170816 -0.154129
-0.342893 -0.183316 -0.154129
-0.342893 -0.170816 -0.166629
-0.342893 -0.170816 -0.154129
-0.330393 -0.195816 -0.179129
-0.317893 -0.208316 -0.179129
-0.317893 -0.195816 -0.191629
-0.317893 -0.195816 -0.179129
-0.330393 -0.208316 -0.166629
-0.330393 -0.208316 -0.154129
-0.330393 -0.195816 -0.166629
-0.330393 -0.183316 -0.179129
-0.317893 -0.183316 -0.191629
-0.317893 -0.183316 -0.179129
-0.317893 -0.170816 -0.191629
-0.317893 -0.170816 -0.179129
-0.330393 -0.183316 -0.166629
-0.330393 -0.170816 -0.166629
-0.292893 -0.258316 -0.204129
-0.292893 -0.245816 -0.216629
-0.292893 -0.245816 -0.204129
-0.292893 -0.220816 -0.229129
-0.305393 -0.220816 -0.204129
-0.292893 -0.233316 -0.216629
-0.292893 -0.233316 -0.204129
-0.292893 -0.220816 -0.216629
-0.292893 -0.220816 -0.204129
-0.280393 -0.245816 -0.241629
-0.280393 -0.245816 -0.229129
-0.267893 -0.258316 -0.241629
-0.267893 -0.258316 -0.229129
-0.267893 -0.245816 -0.241629
-0.280393 -0.258316 -0.216629
-0.280393 -0.258316 -0.204129
-0.280393 -0.245816 -0.216629
-0.267893 -0.258316 -0.216629
-0.280393 -0.233316 -0.241629
-0.280393 -0.233316 -0.229129
-0.280393 -0.220816 -0.241629
-0.280393 -0.220816 -0.229129
-0.267893 -0.233316 -0.241629
-0.280393 -0.233316 -0.216629
-0.305393 -0.258316 -0.179129
-0.305393 -0.245816 -0.191629
-0.305393 -0.245816 -0.179129
-0.292893 -0.258316 -0.191629
-0.292893 -0.258316 -0.179129
-0.292893 -0.245816 -0.191629
-0.305393 -0.258316 -0.166629
-0.305393 -0.245816 -0.166629
-0.305393 -0.233316 -0.191629
-0.305393 -0.220816 -0.191629
-0.292893 -0.208316 -0.229129
-0.292893 -0.195816 -0.229129
-0.305393 -0.208316 -0.204129
-0.305393 -0.195816 -0.216629
-0.305393 -0.195816 -0.204129
-0.292893 -0.208316 -0.216629
-0.292893 -0.195816 -0.216629
-0.292893 -0.183316 -0.229129
-0.292893 -0.170816 -0.241629
-0.292893 -0.170816 -0.229129
-0.305393 -0.183316 -0.204129
-0.305393 -0.170816 -0.204129
-0.292893 -0.183316 -0.216629
-0.292893 -0.170816 -0.216629
-0.280393 -0.208316 -0.241629
-0.280393 -0.195816 -0.241629
-0.280393 -0.195816 -0.229129
-0.267893 -0.195816 -0.241629
-0.280393 -0.183316 -0.241629
-0.280393 -0.183316 -0.229129
-0.280393 -0.170816 -0.241629
-0.280393 -0.170816 -0.229129
-0.305393 -0.208316 -0.191629
-0.305393 -0.195816 -0.191629
-0.305393 -0.183316 -0.191629
-0.355393 -0.258316 -0.129129
-0.355393 -0.245816 -0.129129
-0.342893 -0.258316 -0.141629
-0.342893 -0.258316 -0.129129
-0.342893 -0.245816 -0.141629
-0.355393 -0.233316 -0.141629
-0.355393 -0.233316 -0.129129
-0.355393 -0.220816 -0.141629
-0.342893 -0.233316 -0.141629
-0.330393 -0.258316 -0.141629
-0.355393 -0.208316 -0.141629
-0.355393 -0.195816 -0.141629
-0.355393 -0.183316 -0.141629
-0.355393 -0.170816 -0.141629
-0.242893 -0.320816 -0.204129
-0.255393 -0.358316 -0.166629
-0.255393 -0.358316 -0.154129
-0.255393 -0.345816 -0.166629
-0.242893 -0.358316 -0.166629
-0.242893 -0.358316 -0.154129
-0.242893 -0.345816 -0.166629
-0.255393 -0.333316 -0.191629
-0.255393 -0.333316 -0.179129
-0.255393 -0.320816 -0.191629
-0.255393 -0.320816 -0.179129
-0.255393 -0.333316 -0.166629
-0.230393 -0.358316 -0.166629
-0.230393 -0.345816 -0.166629
-0.255393 -0.295816 -0.229129
-0.242893 -0.295816 -0.241629
-0.242893 -0.295816 -0.229129
-0.255393 -0.308316 -0.204129
-0.255393 -0.295816 -0.216629
-0.255393 -0.295816 -0.204129
-0.242893 -0.295816 -0.216629
-0.255393 -0.283316 -0.229129
-0.255393 -0.270816 -0.241629
-0.242893 -0.283316 -0.241629
-0.255393 -0.283316 -0.216629
-0.255393 -0.270816 -0.216629
-0.230393 -0.308316 -0.241629
-0.230393 -0.295816 -0.241629
-0.242893 -0.220816 -0.241629
-0.230393 -0.233316 -0.241629
-0.230393 -0.220816 -0.241629
-0.255393 -0.208316 -0.241629
-0.255393 -0.208316 -0.229129
-0.255393 -0.195816 -0.241629
-0.242893 -0.208316 -0.241629
-0.242893 -0.208316 -0.229129
-0.267893 -0.120816 -0.304129
-0.267893 -0.145816 -0.279129
-0.280393 -0.158316 -0.266629
-0.280393 -0.158316 -0.254129
-0.280393 -0.145816 -0.266629
-0.280393 -0.145816 -0.254129
-0.267893 -0.145816 -0.266629
-0.267893 -0.133316 -0.291629
-0.267893 -0.133316 -0.279129
-0.267893 -0.120816 -0.291629
-0.267893 -0.120816 -0.279129
-0.280393 -0.133316 -0.266629
-0.280393 -0.133316 -0.254129
-0.280393 -0.120816 -0.254129
-0.267893 -0.133316 -0.266629
-0.267893 -0.120816 -0.266629
-0.267893 -0.108316 -0.291629
-0.267893 -0.108316 -0.279129
-0.267893 -0.095816 -0.279129
-0.280393 -0.108316 -0.266629
-0.280393 -0.108316 -0.254129
-0.280393 -0.095816 -0.254129
-0.267893 -0.108316 -0.266629
-0.267893 -0.095816 -0.266629
-0.267893 -0.083316 -0.279129
-0.280393 -0.083316 -0.254129
-0.280393 -0.070816 -0.254129
-0.267893 -0.083316 -0.266629
-0.267893 -0.070816 -0.266629
-0.267893 -0.070816 -0.254129
-0.280393 -0.058316 -0.254129
-0.267893 -0.058316 -0.254129
-0.217893 -0.120816 -0.354129
-0.230393 -0.108316 -0.354129
-0.217893 -0.108316 -0.354129
-0.217893 -0.095816 -0.354129
-0.217893 -0.083316 -0.354129
-0.192893 -0.120816 -0.429129
-0.180393 -0.145816 -0.441629
-0.167893 -0.145816 -0.441629
-0.180393 -0.133316 -0.441629
-0.180393 -0.133316 -0.429129
-0.180393 -0.120816 -0.441629
-0.180393 -0.120816 -0.429129
-0.167893 -0.133316 -0.429129
-0.167893 -0.120816 -0.441629
-0.180393 -0.133316 -0.416629
-0.180393 -0.120816 -0.416629
-0.180393 -0.120816 -0.404129
-0.167893 -0.133316 -0.416629
-0.167893 -0.133316 -0.404129
-0.167893 -0.120816 -0.416629
-0.167893 -0.120816 -0.404129
-0.205393 -0.120816 -0.366629
-0.205393 -0.120816 -0.354129
-0.180393 -0.120816 -0.391629
-0.180393 -0.120816 -0.379129
-0.167893 -0.133316 -0.391629
-0.180393 -0.120816 -0.366629
-0.180393 -0.108316 -0.429129
-0.167893 -0.108316 -0.441629
-0.167893 -0.108316 -0.429129
-0.180393 -0.108316 -0.416629
-0.180393 -0.108316 -0.404129
-0.180393 -0.095816 -0.404129
-0.167893 -0.095816 -0.416629
-0.167893 -0.095816 -0.404129
-0.192893 -0.108316 -0.379129
-0.192893 -0.095816 -0.391629
-0.192893 -0.095816 -0.379129
-0.205393 -0.108316 -0.366629
-0.205393 -0.095816 -0.366629
-0.205393 -0.095816 -0.354129
-0.192893 -0.108316 -0.366629
-0.192893 -0.095816 -0.366629
-0.192893 -0.083316 -0.379129
-0.205393 -0.083316 -0.354129
-0.205393 -0.070816 -0.354129
-0.192893 -0.083316 -0.366629
-0.192893 -0.070816 -0.366629
-0.192893 -0.070816 -0.354129
-0.180393 -0.108316 -0.391629
-0.180393 -0.108316 -0.379129
-0.180393 -0.095816 -0.391629
-0.167893 -0.095816 -0.391629
-0.180393 -0.083316 -0.391629
-0.180393 -0.083316 -0.379129
-0.180393 -0.070816 -0.379129
-0.167893 -0.083316 -0.391629
-0.167893 -0.070816 -0.379129
-0.180393 -0.070816 -0.366629
-0.180393 -0.070816 -0.354129
-0.242893 -0.120816 -0.329129
-0.255393 -0.120816 -0.316629
-0.255393 -0.120816 -0.304129
-0.242893 -0.120816 -0.316629
-0.230393 -0.120816 -0.329129
-0.217893 -0.120816 -0.341629
-0.255393 -0.133316 -0.279129
-0.255393 -0.120816 -0.291629
-0.242893 -0.108316 -0.329129
-0.255393 -0.108316 -0.316629
-0.255393 -0.108316 -0.304129
-0.255393 -0.095816 -0.304129
-0.242893 -0.108316 -0.316629
-0.242893 -0.108316 -0.304129
-0.242893 -0.095816 -0.316629
-0.242893 -0.095816 -0.304129
-0.242893 -0.083316 -0.316629
-0.242893 -0.083316 -0.304129
-0.242893 -0.070816 -0.304129
-0.230393 -0.108316 -0.341629
-0.230393 -0.095816 -0.329129
-0.217893 -0.108316 -0.341629
-0.217893 -0.095816 -0.341629
-0.230393 -0.083316 -0.329129
-0.217893 -0.083316 -0.341629
-0.217893 -0.083316 -0.329129
-0.217893 -0.070816 -0.341629
-0.217893 -0.070816 -0.329129
-0.230393 -0.083316 -0.316629
-0.230393 -0.070816 -0.316629
-0.230393 -0.070816 -0.304129
-0.217893 -0.070816 -0.316629
-0.255393 -0.108316 -0.291629
-0.255393 -0.095816 -0.291629
-0.255393 -0.095816 -0.279129
-0.255393 -0.083316 -0.291629
-0.255393 -0.083316 -0.279129
-0.255393 -0.070816 -0.279129
-0.242893 -0.083316 -0.291629
-0.242893 -0.070816 -0.291629
-0.255393 -0.070816 -0.266629
-0.205393 -0.083316 -0.341629
-0.205393 -0.070816 -0.341629
-0.205393 -0.070816 -0.329129
-0.192893 -0.070816 -0.341629
-0.192893 -0.058316 -0.354129
-0.167893 -0.058316 -0.379129
-0.180393 -0.058316 -0.366629
-0.180393 -0.058316 -0.354129
-0.180393 -0.045816 -0.354129
-0.167893 -0.058316 -0.366629
-0.167893 -0.058316 -0.354129
-0.167893 -0.045816 -0.354129
-0.230393 -0.058316 -0.304129
-0.217893 -0.058316 -0.316629
-0.217893 -0.045816 -0.304129
-0.217893 -0.033316 -0.304129
-0.255393 -0.058316 -0.279129
-0.242893 -0.058316 -0.291629
-0.242893 -0.058316 -0.279129
-0.242893 -0.045816 -0.279129
-0.255393 -0.058316 -0.266629
-0.255393 -0.058316 -0.254129
-0.255393 -0.045816 -0.266629
-0.255393 -0.045816 -0.254129
-0.242893 -0.045816 -0.266629
-0.255393 -0.033316 -0.254129
-0.255393 -0.020816 -0.254129
-0.242893 -0.033316 -0.266629
-0.242893 -0.033316 -0.254129
-0.242893 -0.020816 -0.254129
-0.230393 -0.058316 -0.291629
-0.230393 -0.045816 -0.291629
-0.230393 -0.045816 -0.279129
-0.230393 -0.033316 -0.279129
-0.230393 -0.020816 -0.279129
-0.217893 -0.033316 -0.291629
-0.217893 -0.033316 -0.279129
-0.217893 -0.020816 -0.291629
-0.217893 -0.020816 -0.279129
-0.230393 -0.020816 -0.266629
-0.242893 -0.008316 -0.254129
-0.230393 -0.008316 -0.266629
-0.230393 -0.008316 -0.254129
-0.217893 -0.008316 -0.266629
-0.217893 0.004184 -0.254129
-0.205393 -0.058316 -0.341629
-0.205393 -0.058316 -0.329129
-0.192893 -0.058316 -0.341629
-0.192893 -0.045816 -0.341629
-0.192893 -0.045816 -0.329129
-0.205393 -0.058316 -0.316629
-0.205393 -0.045816 -0.316629
-0.205393 -0.045816 -0.304129
-0.192893 -0.045816 -0.316629
-0.205393 -0.033316 -0.304129
-0.205393 -0.020816 -0.304129
-0.192893 -0.033316 -0.316629
-0.192893 -0.020816 -0.304129
-0.180393 -0.045816 -0.341629
-0.167893 -0.045816 -0.341629
-0.180393 -0.033316 -0.329129
-0.167893 -0.033316 -0.341629
-0.167893 -0.033316 -0.329129
-0.167893 -0.020816 -0.329129
-0.180393 -0.033316 -0.316629
-0.180393 -0.020816 -0.316629
-0.180393 -0.020816 -0.304129
-0.167893 -0.020816 -0.316629
-0.205393 -0.033316 -0.291629
-0.205393 -0.020816 -0.291629
-0.205393 -0.020816 -0.279129
-0.192893 -0.020816 -0.291629
-0.180393 -0.008316 -0.304129
-0.167893 -0.008316 -0.316629
-0.167893 -0.008316 -0.304129
-0.205393 -0.008316 -0.291629
-0.205393 -0.008316 -0.279129
-0.192893 -0.008316 -0.291629
-0.192893 -0.008316 -0.279129
-0.192893 0.004184 -0.279129
-0.205393 -0.008316 -0.266629
-0.205393 0.004184 -0.266629
-0.205393 0.004184 -0.254129
-0.192893 0.004184 -0.266629
-0.205393 0.016684 -0.254129
-0.192893 0.016684 -0.266629
-0.192893 0.016684 -0.254129
-0.192893 0.029184 -0.254129
-0.180393 -0.008316 -0.291629
-0.180393 0.004184 -0.291629
-0.180393 0.004184 -0.279129
-0.167893 0.004184 -0.291629
-0.167893 0.016684 -0.279129
-0.167893 0.029184 -0.279129
-0.180393 0.016684 -0.266629
-0.180393 0.029184 -0.254129
-0.167893 0.029184 -0.266629
-0.317893 -0.158316 -0.204129
-0.317893 -0.145816 -0.204129
-0.317893 -0.133316 -0.204129
-0.317893 -0.120816 -0.204129
-0.355393 -0.158316 -0.154129
-0.355393 -0.145816 -0.154129
-0.342893 -0.158316 -0.166629
-0.342893 -0.158316 -0.154129
-0.342893 -0.145816 -0.166629
-0.342893 -0.145816 -0.154129
-0.342893 -0.120816 -0.179129
-0.355393 -0.133316 -0.154129
-0.355393 -0.120816 -0.166629
-0.355393 -0.120816 -0.154129
-0.342893 -0.133316 -0.166629
-0.342893 -0.133316 -0.154129
-0.342893 -0.120816 -0.166629
-0.330393 -0.158316 -0.179129
-0.330393 -0.145816 -0.179129
-0.317893 -0.158316 -0.191629
-0.317893 -0.158316 -0.179129
-0.317893 -0.145816 -0.191629
-0.317893 -0.145816 -0.179129
-0.330393 -0.158316 -0.166629
-0.330393 -0.145816 -0.166629
-0.330393 -0.133316 -0.179129
-0.330393 -0.120816 -0.179129
-0.317893 -0.133316 -0.191629
-0.317893 -0.133316 -0.179129
-0.317893 -0.120816 -0.191629
-0.317893 -0.108316 -0.204129
-0.317893 -0.095816 -0.204129
-0.317893 -0.083316 -0.204129
-0.317893 -0.070816 -0.204129
-0.342893 -0.108316 -0.179129
-0.355393 -0.108316 -0.154129
-0.355393 -0.095816 -0.166629
-0.355393 -0.095816 -0.154129
-0.342893 -0.108316 -0.166629
-0.342893 -0.095816 -0.166629
-0.355393 -0.083316 -0.166629
-0.355393 -0.083316 -0.154129
-0.355393 -0.070816 -0.154129
-0.342893 -0.083316 -0.166629
-0.342893 -0.070816 -0.166629
-0.330393 -0.108316 -0.191629
-0.330393 -0.108316 -0.179129
-0.330393 -0.095816 -0.191629
-0.330393 -0.095816 -0.179129
-0.317893 -0.108316 -0.191629
-0.317893 -0.095816 -0.191629
-0.330393 -0.083316 -0.191629
-0.330393 -0.083316 -0.179129
-0.330393 -0.070816 -0.191629
-0.330393 -0.070816 -0.179129
-0.317893 -0.083316 -0.191629
-0.317893 -0.070816 -0.191629
-0.292893 -0.158316 -0.229129
-0.292893 -0.145816 -0.229129
-0.305393 -0.158316 -0.216629
-0.305393 -0.158316 -0.204129
-0.305393 -0.145816 -0.216629
-0.305393 -0.145816 -0.204129
-0.292893 -0.145816 -0.216629
-0.292893 -0.133316 -0.241629
-0.292893 -0.133316 -0.229129
-0.292893 -0.120816 -0.241629
-0.292893 -0.120816 -0.229129
-0.305393 -0.133316 -0.216629
-0.305393 -0.133316 -0.204129
-0.305393 -0.120816 -0.216629
-0.292893 -0.133316 -0.216629
-0.280393 -0.158316 -0.241629
-0.280393 -0.145816 -0.241629
-0.280393 -0.120816 -0.241629
-0.305393 -0.133316 -0.191629
-0.292893 -0.108316 -0.241629
-0.292893 -0.108316 -0.229129
-0.292893 -0.095816 -0.241629
-0.292893 -0.095816 -0.229129
-0.305393 -0.108316 -0.216629
-0.305393 -0.108316 -0.204129
-0.305393 -0.095816 -0.216629
-0.292893 -0.083316 -0.229129
-0.292893 -0.070816 -0.229129
-0.305393 -0.083316 -0.216629
-0.305393 -0.083316 -0.204129
-0.305393 -0.070816 -0.216629
-0.305393 -0.070816 -0.204129
-0.292893 -0.083316 -0.216629
-0.292893 -0.070816 -0.216629
-0.280393 -0.108316 -0.241629
-0.280393 -0.095816 -0.241629
-0.280393 -0.083316 -0.241629
-0.280393 -0.070816 -0.241629
-0.267893 -0.083316 -0.241629
-0.355393 -0.158316 -0.141629
-0.355393 -0.145816 -0.141629
-0.355393 -0.133316 -0.141629
-0.355393 -0.120816 -0.141629
-0.342893 -0.058316 -0.179129
-0.342893 -0.045816 -0.179129
-0.355393 -0.058316 -0.166629
-0.355393 -0.058316 -0.154129
-0.355393 -0.045816 -0.154129
-0.342893 -0.058316 -0.166629
-0.342893 -0.045816 -0.166629
-0.342893 -0.045816 -0.154129
-0.355393 -0.033316 -0.154129
-0.342893 -0.033316 -0.166629
-0.342893 -0.033316 -0.154129
-0.342893 -0.020816 -0.154129
-0.330393 -0.058316 -0.191629
-0.330393 -0.058316 -0.179129
-0.330393 -0.045816 -0.179129
-0.317893 -0.058316 -0.191629
-0.317893 -0.045816 -0.191629
-0.317893 -0.045816 -0.179129
-0.330393 -0.020816 -0.179129
-0.317893 -0.033316 -0.191629
-0.317893 -0.033316 -0.179129
-0.317893 -0.020816 -0.179129
-0.330393 -0.033316 -0.166629
-0.330393 -0.020816 -0.166629
-0.342893 -0.008316 -0.154129
-0.342893 0.004184 -0.154129
-0.317893 -0.008316 -0.179129
-0.330393 -0.008316 -0.166629
-0.330393 -0.008316 -0.154129
-0.330393 0.004184 -0.154129
-0.317893 -0.008316 -0.166629
-0.317893 0.004184 -0.166629
-0.330393 0.016684 -0.166629
-0.330393 0.016684 -0.154129
-0.330393 0.029184 -0.154129
-0.317893 0.016684 -0.166629
-0.317893 0.029184 -0.166629
-0.317893 0.029184 -0.154129
-0.292893 -0.045816 -0.229129
-0.305393 -0.058316 -0.204129
-0.305393 -0.045816 -0.204129
-0.292893 -0.058316 -0.216629
-0.292893 -0.045816 -0.216629
-0.292893 -0.045816 -0.204129
-0.305393 -0.033316 -0.204129
-0.292893 -0.033316 -0.216629
-0.292893 -0.033316 -0.204129
-0.292893 -0.020816 -0.204129
-0.280393 -0.058316 -0.229129
-0.280393 -0.045816 -0.229129
-0.267893 -0.058316 -0.241629
-0.267893 -0.045816 -0.241629
-0.267893 -0.045816 -0.229129
-0.280393 -0.033316 -0.229129
-0.267893 -0.033316 -0.241629
-0.267893 -0.033316 -0.229129
-0.267893 -0.020816 -0.229129
-0.280393 -0.033316 -0.216629
-0.280393 -0.020816 -0.216629
-0.267893 -0.020816 -0.216629
-0.305393 -0.045816 -0.191629
-0.305393 -0.033316 -0.191629
-0.305393 -0.020816 -0.191629
-0.305393 -0.020816 -0.179129
-0.292893 -0.008316 -0.204129
-0.267893 -0.008316 -0.229129
-0.280393 -0.008316 -0.216629
-0.280393 -0.008316 -0.204129
-0.280393 0.004184 -0.204129
-0.267893 -0.008316 -0.216629
-0.267893 0.004184 -0.216629
-0.267893 0.004184 -0.204129
-0.267893 0.016684 -0.204129
-0.267893 0.029184 -0.204129
-0.305393 -0.008316 -0.179129
-0.305393 0.004184 -0.179129
-0.292893 -0.008316 -0.191629
-0.292893 0.004184 -0.191629
-0.305393 0.004184 -0.166629
-0.305393 0.016684 -0.179129
-0.292893 0.016684 -0.191629
-0.292893 0.016684 -0.179129
-0.292893 0.029184 -0.179129
-0.305393 0.016684 -0.166629
-0.305393 0.029184 -0.166629
-0.292893 0.029184 -0.166629
-0.280393 0.016684 -0.191629
-0.280393 0.029184 -0.191629
-0.280393 0.029184 -0.179129
-0.267893 0.029184 -0.191629
-0.355393 -0.058316 -0.141629
-0.355393 -0.045816 -0.141629
-0.355393 -0.033316 -0.141629
-0.355393 -0.020816 -0.141629
-0.355393 -0.008316 -0.141629
-0.355393 0.004184 -0.141629
-0.342893 0.004184 -0.141629
-0.355393 0.016684 -0.141629
-0.355393 0.016684 -0.129129
-0.355393 0.029184 -0.129129
-0.342893 0.016684 -0.141629
-0.342893 0.029184 -0.141629
-0.255393 -0.033316 -0.241629
-0.255393 -0.020816 -0.241629
-0.255393 -0.020816 -0.229129
-0.255393 -0.008316 -0.229129
-0.255393 0.004184 -0.229129
-0.242893 -0.008316 -0.241629
-0.242893 0.004184 -0.229129
-0.255393 0.004184 -0.216629
-0.242893 0.016684 -0.229129
-0.255393 0.016684 -0.216629
-0.255393 0.029184 -0.204129
-0.242893 0.029184 -0.216629
-0.242893 0.029184 -0.204129
-0.230393 0.004184 -0.241629
-0.230393 0.016684 -0.229129
-0.230393 0.029184 -0.241629
-0.230393 0.029184 -0.229129
-0.217893 0.016684 -0.241629
-0.217893 0.029184 -0.241629
-0.217893 0.029184 -0.229129
-0.230393 0.029184 -0.216629
-0.205393 0.029184 -0.241629
-0.192893 0.029184 -0.241629
-0.155393 -0.333316 -0.316629
-0.155393 -0.320816 -0.316629
-0.155393 -0.320816 -0.304129
-0.142893 -0.320816 -0.291629
-0.155393 -0.170816 -0.441629
-0.155393 -0.158316 -0.441629
-0.155393 -0.158316 -0.429129
-0.155393 -0.145816 -0.441629
-0.155393 -0.145816 -0.429129
-0.142893 -0.145816 -0.429129
-0.155393 -0.133316 -0.416629
-0.155393 -0.133316 -0.404129
-0.155393 -0.108316 -0.441629
-0.155393 -0.108316 -0.429129
-0.155393 -0.095816 -0.429129
-0.142893 -0.095816 -0.441629
-0.142893 -0.095816 -0.429129
-0.155393 -0.095816 -0.416629
-0.142893 -0.083316 -0.429129
-0.155393 -0.083316 -0.416629
-0.155393 -0.083316 -0.404129
-0.142893 -0.083316 -0.416629
-0.142893 -0.070816 -0.404129
-0.130393 -0.095816 -0.441629
-0.130393 -0.083316 -0.441629
-0.130393 -0.083316 -0.429129
-0.117893 -0.083316 -0.441629
-0.117893 -0.083316 -0.429129
-0.117893 -0.070816 -0.429129
-0.130393 -0.083316 -0.416629
-0.130393 -0.070816 -0.416629
-0.130393 -0.070816 -0.404129
-0.117893 -0.070816 -0.416629
-0.117893 -0.070816 -0.404129
-0.155393 -0.083316 -0.391629
-0.155393 -0.070816 -0.391629
-0.142893 -0.070816 -0.391629
-0.105393 -0.083316 -0.441629
-0.105393 -0.070816 -0.429129
-0.092893 -0.083316 -0.441629
-0.092893 -0.070816 -0.441629
-0.092893 -0.070816 -0.429129
-0.105393 -0.070816 -0.416629
-0.080393 -0.070816 -0.441629
-0.080393 -0.070816 -0.429129
-0.067893 -0.070816 -0.441629
-0.067893 -0.070816 -0.429129
-0.117893 -0.058316 -0.404129
-0.155393 -0.058316 -0.379129
-0.142893 -0.058316 -0.391629
-0.142893 -0.058316 -0.379129
-0.142893 -0.045816 -0.379129
-0.155393 -0.045816 -0.366629
-0.155393 -0.045816 -0.354129
-0.142893 -0.045816 -0.366629
-0.142893 -0.033316 -0.354129
-0.130393 -0.058316 -0.391629
-0.130393 -0.058316 -0.379129
-0.130393 -0.045816 -0.379129
-0.117893 -0.058316 -0.391629
-0.117893 -0.045816 -0.391629
-0.117893 -0.045816 -0.379129
-0.130393 -0.045816 -0.366629
-0.130393 -0.033316 -0.366629
-0.130393 -0.033316 -0.354129
-0.130393 -0.020816 -0.354129
-0.117893 -0.033316 -0.366629
-0.117893 -0.020816 -0.366629
-0.117893 -0.020816 -0.354129
-0.105393 -0.058316 -0.416629
-0.105393 -0.058316 -0.404129
-0.092893 -0.058316 -0.416629
-0.092893 -0.058316 -0.404129
-0.092893 -0.045816 -0.404129
-0.080393 -0.058316 -0.429129
-0.067893 -0.058316 -0.429129
-0.080393 -0.058316 -0.416629
-0.080393 -0.045816 -0.404129
-0.067893 -0.058316 -0.416629
-0.067893 -0.045816 -0.404129
-0.105393 -0.045816 -0.391629
-0.105393 -0.045816 -0.379129
-0.092893 -0.045816 -0.391629
-0.105393 -0.033316 -0.379129
-0.092893 -0.033316 -0.379129
-0.105393 -0.033316 -0.366629
-0.105393 -0.020816 -0.366629
-0.105393 -0.020816 -0.354129
-0.092893 -0.020816 -0.366629
-0.080393 -0.045816 -0.391629
-0.067893 -0.045816 -0.391629
-0.080393 -0.033316 -0.391629
-0.080393 -0.033316 -0.379129
-0.067893 -0.033316 -0.391629
-0.067893 -0.033316 -0.379129
-0.067893 -0.020816 -0.379129
-0.080393 -0.020816 -0.366629
-0.067893 -0.020816 -0.366629
-0.105393 -0.008316 -0.354129
-0.092893 -0.008316 -0.354129
-0.080393 -0.008316 -0.366629
-0.080393 -0.008316 -0.354129
-0.067893 -0.008316 -0.366629
-0.067893 -0.008316 -0.354129
-0.155393 -0.033316 -0.341629
-0.155393 -0.033316 -0.329129
-0.155393 -0.020816 -0.329129
-0.142893 -0.020816 -0.341629
-0.142893 -0.020816 -0.329129
-0.130393 -0.020816 -0.341629
-0.142893 -0.008316 -0.329129
-0.142893 0.004184 -0.329129
-0.155393 -0.008316 -0.316629
-0.155393 0.004184 -0.304129
-0.142893 -0.008316 -0.316629
-0.142893 0.004184 -0.316629
-0.142893 0.004184 -0.304129
-0.142893 0.016684 -0.304129
-0.130393 -0.008316 -0.341629
-0.130393 -0.008316 -0.329129
-0.117893 -0.008316 -0.341629
-0.117893 -0.008316 -0.329129
-0.117893 0.004184 -0.329129
-0.130393 0.004184 -0.316629
-0.117893 0.004184 -0.316629
-0.130393 0.016684 -0.304129
-0.117893 0.016684 -0.316629
-0.117893 0.016684 -0.304129
-0.155393 0.004184 -0.291629
-0.155393 0.016684 -0.291629
-0.155393 0.029184 -0.279129
-0.142893 0.016684 -0.291629
-0.142893 0.029184 -0.279129
-0.155393 0.029184 -0.266629
-0.130393 0.016684 -0.291629
-0.130393 0.029184 -0.291629
-0.130393 0.029184 -0.279129
-0.117893 0.029184 -0.291629
-0.105393 -0.008316 -0.341629
-0.105393 0.004184 -0.329129
-0.092893 -0.008316 -0.341629
-0.092893 0.004184 -0.341629
-0.092893 0.004184 -0.329129
-0.105393 0.004184 -0.316629
-0.092893 0.016684 -0.329129
-0.105393 0.016684 -0.316629
-0.105393 0.016684 -0.304129
-0.105393 0.029184 -0.304129
-0.092893 0.016684 -0.316629
-0.092893 0.029184 -0.304129
-0.080393 -0.008316 -0.341629
-0.080393 0.004184 -0.341629
-0.080393 0.004184 -0.329129
-0.067893 -0.008316 -0.341629
-0.067893 0.004184 -0.341629
-0.067893 0.004184 -0.329129
-0.080393 0.016684 -0.329129
-0.067893 0.016684 -0.329129
-0.080393 0.016684 -0.316629
-0.080393 0.029184 -0.316629
-0.080393 0.029184 -0.304129
-0.067893 0.016684 -0.316629
-0.067893 0.029184 -0.316629
-0.067893 0.029184 -0.304129
-0.105393 0.029184 -0.291629
-0.055393 -0.070816 -0.441629
-0.042893 -0.070816 -0.441629
-0.030393 -0.070816 -0.441629
-0.017893 -0.070816 -0.441629
-0.005393 -0.070816 -0.441629
0.007107 -0.070816 -0.441629
0.007107 -0.070816 -0.429129
0.019607 -0.070816 -0.441629
0.032107 -0.070816 -0.441629
0.032107 -0.070816 -0.429129
-0.055393 -0.058316 -0.441629
-0.055393 -0.058316 -0.429129
-0.042893 -0.058316 -0.429129
-0.055393 -0.058316 -0.416629
-0.055393 -0.045816 -0.416629
-0.055393 -0.045816 -0.404129
-0.042893 -0.045816 -0.416629
-0.042893 -0.045816 -0.404129
-0.055393 -0.033316 -0.404129
-0.030393 -0.058316 -0.429129
-0.017893 -0.058316 -0.429129
-0.030393 -0.058316 -0.416629
-0.030393 -0.045816 -0.416629
-0.030393 -0.045816 -0.404129
-0.017893 -0.058316 -0.416629
-0.017893 -0.045816 -0.416629
-0.017893 -0.045816 -0.404129
-0.030393 -0.033316 -0.404129
-0.055393 -0.033316 -0.391629
-0.055393 -0.020816 -0.379129
-0.042893 -0.033316 -0.391629
-0.042893 -0.033316 -0.379129
-0.042893 -0.020816 -0.379129
-0.055393 -0.020816 -0.366629
-0.042893 -0.020816 -0.366629
-0.030393 -0.033316 -0.391629
-0.030393 -0.033316 -0.379129
-0.030393 -0.020816 -0.379129
-0.017893 -0.033316 -0.391629
-0.017893 -0.033316 -0.379129
-0.017893 -0.020816 -0.379129
-0.030393 -0.020816 -0.366629
-0.017893 -0.020816 -0.366629
-0.055393 -0.008316 -0.354129
-0.042893 -0.008316 -0.354129
-0.030393 -0.008316 -0.366629
-0.030393 -0.008316 -0.354129
-0.030393 0.004184 -0.354129
-0.017893 -0.008316 -0.354129
-0.005393 -0.058316 -0.441629
-0.005393 -0.058316 -0.429129
0.007107 -0.058316 -0.429129
-0.005393 -0.058316 -0.416629
-0.005393 -0.045816 -0.404129
0.007107 -0.058316 -0.416629
0.007107 -0.058316 -0.404129
0.007107 -0.045816 -0.404129
0.019607 -0.058316 -0.429129
0.032107 -0.058316 -0.429129
0.019607 -0.058316 -0.416629
0.019607 -0.058316 -0.404129
0.019607 -0.045816 -0.404129
0.032107 -0.058316 -0.416629
0.032107 -0.058316 -0.404129
0.007107 -0.045816 -0.391629
-0.005393 -0.033316 -0.391629
-0.005393 -0.033316 -0.379129
-0.005393 -0.020816 -0.379129
0.007107 -0.033316 -0.391629
0.007107 -0.033316 -0.379129
-0.005393 -0.020816 -0.366629
-0.005393 -0.020816 -0.354129
0.007107 -0.020816 -0.366629
0.019607 -0.045816 -0.391629
0.032107 -0.045816 -0.391629
0.019607 -0.033316 -0.391629
0.019607 -0.033316 -0.379129
0.032107 -0.033316 -0.379129
0.019607 -0.033316 -0.366629
0.019607 -0.020816 -0.366629
0.019607 -0.020816 -0.354129
0.032107 -0.033316 -0.366629
0.032107 -0.020816 -0.366629
0.032107 -0.020816 -0.354129
-0.005393 -0.008316 -0.354129
0.007107 -0.008316 -0.354129
0.019607 -0.008316 -0.354129
0.032107 -0.008316 -0.354129
-0.055393 0.004184 -0.341629
-0.055393 0.004184 -0.329129
-0.042893 0.004184 -0.341629
-0.055393 0.016684 -0.329129
-0.042893 0.016684 -0.329129
-0.055393 0.016684 -0.316629
-0.055393 0.029184 -0.316629
-0.055393 0.029184 -0.304129
-0.042893 0.016684 -0.316629
-0.042893 0.029184 -0.316629
-0.042893 0.029184 -0.304129
-0.030393 -0.008316 -0.341629
-0.030393 0.004184 -0.341629
-0.017893 0.004184 -0.341629
-0.017893 0.004184 -0.329129
-0.030393 0.016684 -0.341629
-0.030393 0.016684 -0.329129
-0.017893 0.016684 -0.329129
-0.030393 0.016684 -0.316629
-0.030393 0.029184 -0.316629
-0.030393 0.029184 -0.304129
-0.017893 0.016684 -0.316629
-0.017893 0.029184 -0.316629
-0.017893 0.029184 -0.304129
-0.005393 -0.008316 -0.341629
-0.005393 0.004184 -0.341629
-0.005393 0.004184 -0.329129
0.007107 -0.008316 -0.341629
0.007107 0.004184 -0.341629
0.007107 0.004184 -0.329129
-0.005393 0.016684 -0.329129
0.007107 0.016684 -0.329129
-0.005393 0.016684 -0.316629
-0.005393 0.029184 -0.316629
-0.005393 0.029184 -0.304129
0.007107 0.016684 -0.316629
0.007107 0.029184 -0.304129
0.019607 -0.008316 -0.341629
0.019607 0.004184 -0.341629
0.019607 0.004184 -0.329129
0.032107 -0.008316 -0.341629
0.032107 0.004184 -0.341629
0.032107 0.004184 -0.329129
0.032107 0.004184 -0.316629
0.019607 0.016684 -0.329129
0.032107 0.016684 -0.329129
0.019607 0.016684 -0.316629
0.019607 0.016684 -0.304129
0.019607 0.029184 -0.304129
0.032107 0.016684 -0.316629
0.032107 0.029184 -0.304129
0.019607 0.029184 -0.291629
-0.342893 -0.345816 -0.041629
-0.355393 -0.320816 -0.041629
-0.342893 -0.333316 -0.041629
-0.342893 -0.320816 -0.041629
-0.342893 -0.320816 -0.029129
-0.342893 -0.320816 -0.016629
-0.342893 -0.320816 -0.004129
-0.330393 -0.358316 -0.041629
-0.330393 -0.345816 -0.041629
-0.330393 -0.345816 -0.029129
-0.317893 -0.358316 -0.041629
-0.317893 -0.358316 -0.029129
-0.317893 -0.345816 -0.029129
-0.330393 -0.345816 -0.016629
-0.317893 -0.358316 -0.016629
-0.317893 -0.358316 -0.004129
-0.317893 -0.345816 -0.016629
-0.317893 -0.345816 -0.004129
-0.330393 -0.333316 -0.041629
-0.330393 -0.333316 -0.029129
-0.330393 -0.333316 -0.016629
-0.330393 -0.333316 -0.004129
-0.330393 -0.320816 -0.004129
-0.317893 -0.345816 0.008371
-0.317893 -0.345816 0.020871
-0.330393 -0.333316 0.008371
-0.330393 -0.320816 0.008371
-0.330393 -0.320816 0.020871
-0.317893 -0.333316 0.008371
-0.317893 -0.333316 0.020871
-0.317893 -0.320816 0.020871
-0.317893 -0.333316 0.033371
-0.317893 -0.320816 0.033371
-0.317893 -0.320816 0.045871
-0.355393 -0.308316 -0.041629
-0.355393 -0.308316 -0.029129
-0.355393 -0.295816 -0.041629
-0.355393 -0.295816 -0.029129
-0.342893 -0.308316 -0.029129
-0.355393 -0.295816 -0.016629
-0.342893 -0.308316 -0.016629
-0.342893 -0.308316 -0.004129
-0.342893 -0.295816 -0.016629
-0.342893 -0.295816 -0.004129
-0.355393 -0.283316 -0.016629
-0.355393 -0.283316 -0.004129
-0.355393 -0.270816 -0.004129
-0.355393 -0.295816 0.008371
-0.342893 -0.308316 0.008371
-0.342893 -0.295816 0.008371
-0.342893 -0.295816 0.020871
-0.355393 -0.283316 0.008371
-0.355393 -0.283316 0.020871
-0.355393 -0.270816 0.008371
-0.355393 -0.270816 0.020871
-0.342893 -0.283316 0.008371
-0.342893 -0.283316 0.020871
-0.355393 -0.270816 0.033371
-0.342893 -0.283316 0.033371
-0.342893 -0.283316 0.045871
-0.342893 -0.270816 0.033371
-0.342893 -0.270816 0.045871
-0.330393 -0.308316 0.008371
-0.330393 -0.308316 0.020871
-0.330393 -0.295816 0.020871
-0.330393 -0.308316 0.033371
-0.330393 -0.308316 0.045871
-0.330393 -0.295816 0.033371
-0.330393 -0.295816 0.045871
-0.317893 -0.308316 0.045871
-0.317893 -0.295816 0.045871
-0.330393 -0.283316 0.045871
-0.305393 -0.358316 -0.016629
-0.305393 -0.358316 -0.004129
-0.305393 -0.358316 0.008371
-0.305393 -0.358316 0.020871
-0.305393 -0.345816 0.008371
-0.305393 -0.345816 0.020871
-0.292893 -0.358316 0.020871
-0.305393 -0.358316 0.033371
-0.305393 -0.345816 0.033371
-0.305393 -0.345816 0.045871
-0.292893 -0.358316 0.033371
-0.292893 -0.358316 0.045871
-0.292893 -0.345816 0.045871
-0.305393 -0.333316 0.020871
-0.305393 -0.333316 0.033371
-0.305393 -0.333316 0.045871
-0.342893 -0.270816 0.058371
-0.330393 -0.295816 0.058371
-0.317893 -0.308316 0.058371
-0.317893 -0.295816 0.058371
-0.317893 -0.295816 0.070871
-0.330393 -0.283316 0.058371
-0.330393 -0.283316 0.070871
-0.330393 -0.270816 0.058371
-0.330393 -0.270816 0.070871
-0.317893 -0.283316 0.070871
-0.317893 -0.283316 0.083371
-0.317893 -0.270816 0.083371
-0.317893 -0.270816 0.095871
-0.305393 -0.345816 0.058371
-0.292893 -0.345816 0.058371
-0.292893 -0.345816 0.070871
-0.292893 -0.345816 0.083371
-0.305393 -0.333316 0.058371
-0.305393 -0.333316 0.070871
-0.305393 -0.320816 0.058371
-0.305393 -0.320816 0.070871
-0.292893 -0.333316 0.058371
-0.292893 -0.333316 0.070871
-0.292893 -0.320816 0.070871
-0.292893 -0.333316 0.083371
-0.292893 -0.320816 0.083371
-0.292893 -0.320816 0.095871
-0.280393 -0.358316 0.058371
-0.280393 -0.358316 0.070871
-0.280393 -0.345816 0.070871
-0.267893 -0.358316 0.070871
-0.280393 -0.345816 0.083371
-0.267893 -0.358316 0.083371
-0.267893 -0.345816 0.083371
-0.267893 -0.345816 0.095871
-0.280393 -0.333316 0.083371
-0.280393 -0.333316 0.095871
-0.280393 -0.320816 0.095871
-0.267893 -0.333316 0.095871
-0.280393 -0.320816 0.108371
-0.267893 -0.333316 0.108371
-0.267893 -0.320816 0.108371
-0.267893 -0.320816 0.120871
-0.305393 -0.308316 0.070871
-0.305393 -0.308316 0.083371
-0.305393 -0.308316 0.095871
-0.305393 -0.295816 0.083371
-0.305393 -0.295816 0.095871
-0.292893 -0.308316 0.083371
-0.292893 -0.308316 0.095871
-0.292893 -0.295816 0.095871
-0.305393 -0.283316 0.083371
-0.305393 -0.283316 0.095871
-0.305393 -0.270816 0.095871
-0.292893 -0.295816 0.108371
-0.305393 -0.270816 0.108371
-0.292893 -0.283316 0.108371
-0.292893 -0.270816 0.108371
-0.292893 -0.270816 0.120871
