ply
format ascii 1.0
element vertex 1668
property float x
property float y
property float z
end_header
-0.184143 0.037934 -0.245379
-0.184143 0.047934 -0.235379
-0.194143 0.047934 -0.225379
-0.194143 0.057934 -0.235379
-0.184143 0.057934 -0.235379
-0.194143 0.057934 -0.225379
-0.194143 0.067934 -0.215379
-0.184143 0.057934 -0.225379
-0.184143 0.067934 -0.215379
-0.214143 0.057934 -0.205379
-0.214143 0.067934 -0.205379
-0.204143 0.067934 -0.205379
-0.194143 0.077934 -0.215379
-0.184143 0.077934 -0.215379
-0.214143 0.077934 -0.205379
-0.214143 0.077934 -0.195379
-0.214143 0.087934 -0.195379
-0.204143 0.077934 -0.205379
-0.204143 0.077934 -0.195379
-0.204143 0.087934 -0.205379
-0.204143 0.087934 -0.195379
-0.214143 0.097934 -0.195379
-0.204143 0.097934 -0.195379
-0.214143 0.097934 -0.185379
-0.214143 0.107934 -0.175379
-0.204143 0.097934 -0.185379
-0.204143 0.107934 -0.185379
-0.194143 0.077934 -0.205379
-0.194143 0.087934 -0.205379
-0.184143 0.077934 -0.205379
-0.184143 0.087934 -0.205379
-0.194143 0.097934 -0.195379
-0.184143 0.097934 -0.195379
-0.194143 0.107934 -0.185379
-0.184143 0.107934 -0.185379
-0.174143 0.047934 -0.245379
-0.164143 0.047934 -0.245379
-0.174143 0.057934 -0.235379
-0.164143 0.057934 -0.235379
-0.164143 0.067934 -0.235379
-0.174143 0.067934 -0.225379
-0.164143 0.067934 -0.225379
-0.154143 0.047934 -0.245379
-0.154143 0.057934 -0.245379
-0.154143 0.057934 -0.235379
-0.154143 0.067934 -0.235379
-0.144143 0.067934 -0.245379
-0.144143 0.067934 -0.235379
-0.174143 0.077934 -0.215379
-0.174143 0.087934 -0.215379
-0.164143 0.077934 -0.225379
-0.164143 0.077934 -0.215379
-0.164143 0.087934 -0.215379
-0.154143 0.077934 -0.235379
-0.144143 0.077934 -0.235379
-0.154143 0.077934 -0.225379
-0.154143 0.087934 -0.225379
-0.154143 0.087934 -0.215379
-0.144143 0.077934 -0.225379
-0.144143 0.087934 -0.225379
-0.144143 0.097934 -0.215379
-0.174143 0.087934 -0.205379
-0.174143 0.097934 -0.205379
-0.174143 0.107934 -0.195379
-0.164143 0.097934 -0.205379
-0.164143 0.107934 -0.205379
-0.164143 0.107934 -0.195379
-0.154143 0.097934 -0.205379
-0.154143 0.107934 -0.205379
-0.144143 0.107934 -0.205379
-0.294143 0.037934 -0.165379
-0.294143 0.047934 -0.165379
-0.294143 0.057934 -0.165379
-0.294143 0.057934 -0.155379
-0.294143 0.067934 -0.155379
-0.284143 0.057934 -0.165379
-0.284143 0.067934 -0.165379
-0.274143 0.067934 -0.165379
-0.294143 0.077934 -0.155379
-0.294143 0.087934 -0.155379
-0.284143 0.077934 -0.165379
-0.284143 0.077934 -0.155379
-0.284143 0.087934 -0.155379
-0.294143 0.087934 -0.145379
-0.294143 0.097934 -0.145379
-0.294143 0.107934 -0.145379
-0.284143 0.097934 -0.145379
-0.284143 0.107934 -0.145379
-0.274143 0.077934 -0.165379
-0.274143 0.087934 -0.165379
-0.274143 0.087934 -0.155379
-0.264143 0.087934 -0.165379
-0.274143 0.097934 -0.155379
-0.274143 0.107934 -0.155379
-0.264143 0.097934 -0.165379
-0.264143 0.097934 -0.155379
-0.264143 0.107934 -0.155379
-0.254143 0.097934 -0.165379
-0.254143 0.107934 -0.165379
-0.254143 0.107934 -0.155379
-0.244143 0.097934 -0.165379
-0.244143 0.107934 -0.165379
-0.234143 0.107934 -0.165379
-0.134143 -0.002066 -0.325379
-0.134143 -0.002066 -0.315379
-0.134143 0.007934 -0.325379
-0.134143 0.007934 -0.315379
-0.124143 -0.002066 -0.325379
-0.124143 -0.002066 -0.315379
-0.124143 0.007934 -0.325379
-0.124143 0.007934 -0.315379
-0.134143 0.007934 -0.305379
-0.134143 0.017934 -0.305379
-0.134143 0.017934 -0.295379
-0.134143 0.027934 -0.295379
-0.124143 0.017934 -0.305379
-0.124143 0.027934 -0.295379
-0.114143 -0.002066 -0.325379
-0.114143 0.007934 -0.325379
-0.104143 0.007934 -0.325379
-0.114143 0.017934 -0.315379
-0.104143 0.017934 -0.325379
-0.104143 0.017934 -0.315379
-0.114143 0.017934 -0.305379
-0.114143 0.027934 -0.305379
-0.114143 0.027934 -0.295379
-0.104143 0.017934 -0.305379
-0.104143 0.027934 -0.305379
-0.104143 0.027934 -0.295379
-0.134143 0.027934 -0.285379
-0.124143 0.027934 -0.285379
-0.094143 0.007934 -0.325379
-0.084143 0.007934 -0.325379
-0.094143 0.017934 -0.325379
-0.094143 0.017934 -0.315379
-0.084143 0.017934 -0.325379
-0.084143 0.027934 -0.315379
-0.094143 0.027934 -0.305379
-0.084143 0.027934 -0.305379
-0.074143 0.017934 -0.325379
-0.074143 0.017934 -0.315379
-0.074143 0.027934 -0.315379
-0.064143 0.017934 -0.325379
-0.064143 0.027934 -0.315379
-0.074143 0.027934 -0.305379
-0.064143 0.027934 -0.305379
-0.104143 0.037934 -0.295379
-0.134143 0.037934 -0.275379
-0.134143 0.047934 -0.275379
-0.124143 0.037934 -0.285379
-0.124143 0.037934 -0.275379
-0.124143 0.047934 -0.275379
-0.134143 0.037934 -0.265379
-0.134143 0.047934 -0.265379
-0.124143 0.047934 -0.265379
-0.134143 0.057934 -0.255379
-0.124143 0.057934 -0.265379
-0.124143 0.057934 -0.255379
-0.114143 0.037934 -0.285379
-0.114143 0.047934 -0.275379
-0.104143 0.037934 -0.285379
-0.104143 0.047934 -0.285379
-0.104143 0.047934 -0.275379
-0.114143 0.057934 -0.265379
-0.114143 0.067934 -0.255379
-0.104143 0.057934 -0.265379
-0.104143 0.067934 -0.265379
-0.104143 0.067934 -0.255379
-0.104143 0.077934 -0.255379
-0.094143 0.037934 -0.295379
-0.084143 0.037934 -0.305379
-0.084143 0.037934 -0.295379
-0.074143 0.037934 -0.305379
-0.074143 0.037934 -0.295379
-0.074143 0.047934 -0.295379
-0.064143 0.037934 -0.305379
-0.064143 0.047934 -0.295379
-0.094143 0.047934 -0.285379
-0.084143 0.047934 -0.285379
-0.094143 0.057934 -0.275379
-0.084143 0.057934 -0.275379
-0.094143 0.067934 -0.265379
-0.094143 0.067934 -0.255379
-0.084143 0.067934 -0.265379
-0.074143 0.047934 -0.285379
-0.064143 0.047934 -0.285379
-0.074143 0.057934 -0.275379
-0.064143 0.057934 -0.285379
-0.064143 0.057934 -0.275379
-0.074143 0.067934 -0.265379
-0.064143 0.067934 -0.265379
-0.084143 0.077934 -0.255379
-0.074143 0.077934 -0.255379
-0.064143 0.077934 -0.265379
-0.064143 0.077934 -0.255379
-0.134143 0.067934 -0.245379
-0.124143 0.067934 -0.245379
-0.134143 0.077934 -0.235379
-0.124143 0.077934 -0.245379
-0.124143 0.077934 -0.235379
-0.124143 0.087934 -0.235379
-0.134143 0.087934 -0.225379
-0.134143 0.097934 -0.225379
-0.134143 0.097934 -0.215379
-0.134143 0.107934 -0.215379
-0.124143 0.097934 -0.225379
-0.124143 0.097934 -0.215379
-0.114143 0.077934 -0.245379
-0.114143 0.077934 -0.235379
-0.114143 0.087934 -0.235379
-0.104143 0.077934 -0.245379
-0.104143 0.087934 -0.235379
-0.114143 0.087934 -0.225379
-0.114143 0.097934 -0.225379
-0.114143 0.107934 -0.215379
-0.104143 0.097934 -0.225379
-0.104143 0.097934 -0.215379
-0.104143 0.107934 -0.215379
-0.134143 0.107934 -0.205379
-0.124143 0.107934 -0.205379
-0.094143 0.077934 -0.245379
-0.094143 0.087934 -0.235379
-0.084143 0.077934 -0.245379
-0.084143 0.087934 -0.245379
-0.084143 0.087934 -0.235379
-0.094143 0.087934 -0.225379
-0.084143 0.097934 -0.235379
-0.094143 0.097934 -0.225379
-0.094143 0.107934 -0.215379
-0.084143 0.097934 -0.225379
-0.084143 0.107934 -0.215379
-0.074143 0.077934 -0.245379
-0.074143 0.087934 -0.235379
-0.064143 0.087934 -0.245379
-0.064143 0.087934 -0.235379
-0.074143 0.097934 -0.235379
-0.064143 0.097934 -0.235379
-0.074143 0.107934 -0.225379
-0.074143 0.107934 -0.215379
-0.064143 0.107934 -0.225379
-0.054143 0.017934 -0.325379
-0.054143 0.027934 -0.315379
-0.044143 0.017934 -0.325379
-0.044143 0.027934 -0.315379
-0.054143 0.027934 -0.305379
-0.044143 0.027934 -0.305379
-0.034143 0.007934 -0.325379
-0.024143 0.007934 -0.325379
-0.034143 0.017934 -0.325379
-0.034143 0.027934 -0.315379
-0.024143 0.017934 -0.325379
-0.024143 0.017934 -0.315379
-0.024143 0.027934 -0.315379
-0.034143 0.027934 -0.305379
-0.024143 0.027934 -0.305379
-0.014143 0.007934 -0.325379
-0.004143 0.007934 -0.325379
-0.014143 0.017934 -0.315379
-0.014143 0.027934 -0.315379
-0.004143 0.017934 -0.325379
-0.004143 0.017934 -0.315379
-0.004143 0.027934 -0.315379
-0.014143 0.027934 -0.305379
-0.004143 0.027934 -0.305379
0.015857 0.007934 -0.325379
0.005857 0.017934 -0.325379
0.005857 0.017934 -0.315379
0.015857 0.017934 -0.315379
0.005857 0.027934 -0.305379
0.015857 0.027934 -0.305379
-0.044143 0.037934 -0.315379
-0.054143 0.037934 -0.305379
-0.054143 0.037934 -0.295379
-0.054143 0.047934 -0.295379
-0.044143 0.037934 -0.305379
-0.044143 0.037934 -0.295379
-0.034143 0.037934 -0.295379
-0.034143 0.047934 -0.295379
-0.024143 0.037934 -0.305379
-0.024143 0.037934 -0.295379
-0.044143 0.047934 -0.285379
-0.054143 0.057934 -0.285379
-0.054143 0.057934 -0.275379
-0.044143 0.057934 -0.285379
-0.044143 0.057934 -0.275379
-0.054143 0.067934 -0.265379
-0.044143 0.067934 -0.265379
-0.034143 0.047934 -0.285379
-0.024143 0.047934 -0.285379
-0.034143 0.057934 -0.275379
-0.024143 0.057934 -0.275379
-0.034143 0.067934 -0.265379
-0.034143 0.067934 -0.255379
-0.024143 0.067934 -0.265379
-0.054143 0.077934 -0.265379
-0.054143 0.077934 -0.255379
-0.044143 0.077934 -0.265379
-0.044143 0.077934 -0.255379
-0.024143 0.077934 -0.255379
-0.014143 0.037934 -0.305379
-0.014143 0.037934 -0.295379
-0.014143 0.047934 -0.295379
-0.004143 0.037934 -0.305379
-0.004143 0.037934 -0.295379
-0.004143 0.047934 -0.295379
0.005857 0.037934 -0.295379
0.015857 0.037934 -0.305379
0.015857 0.037934 -0.295379
-0.014143 0.047934 -0.285379
-0.004143 0.047934 -0.285379
-0.014143 0.057934 -0.275379
-0.004143 0.057934 -0.275379
-0.014143 0.057934 -0.265379
-0.014143 0.067934 -0.255379
-0.004143 0.067934 -0.265379
-0.004143 0.067934 -0.255379
0.005857 0.047934 -0.285379
0.015857 0.037934 -0.285379
0.015857 0.047934 -0.285379
0.005857 0.057934 -0.275379
0.015857 0.057934 -0.275379
0.005857 0.057934 -0.265379
0.005857 0.067934 -0.265379
0.005857 0.067934 -0.255379
0.015857 0.057934 -0.265379
0.015857 0.067934 -0.265379
0.015857 0.067934 -0.255379
-0.014143 0.077934 -0.255379
-0.004143 0.077934 -0.255379
0.005857 0.077934 -0.255379
-0.054143 0.087934 -0.245379
-0.044143 0.087934 -0.245379
-0.054143 0.097934 -0.235379
-0.044143 0.097934 -0.235379
-0.054143 0.107934 -0.225379
-0.054143 0.107934 -0.215379
-0.044143 0.097934 -0.225379
-0.044143 0.107934 -0.225379
-0.044143 0.107934 -0.215379
-0.034143 0.087934 -0.245379
-0.034143 0.087934 -0.235379
-0.024143 0.077934 -0.245379
-0.024143 0.087934 -0.245379
-0.024143 0.087934 -0.235379
-0.034143 0.097934 -0.235379
-0.034143 0.107934 -0.225379
-0.034143 0.107934 -0.215379
-0.024143 0.097934 -0.225379
-0.024143 0.107934 -0.225379
-0.024143 0.107934 -0.215379
-0.014143 0.087934 -0.245379
-0.014143 0.087934 -0.235379
-0.004143 0.077934 -0.245379
-0.004143 0.087934 -0.245379
-0.004143 0.087934 -0.235379
-0.014143 0.097934 -0.235379
-0.014143 0.097934 -0.225379
-0.014143 0.107934 -0.215379
-0.004143 0.097934 -0.225379
-0.004143 0.107934 -0.225379
-0.004143 0.107934 -0.215379
0.005857 0.077934 -0.245379
0.005857 0.087934 -0.235379
0.015857 0.077934 -0.245379
0.015857 0.087934 -0.245379
0.015857 0.087934 -0.235379
0.005857 0.097934 -0.225379
0.005857 0.107934 -0.215379
0.015857 0.097934 -0.225379
0.015857 0.097934 -0.215379
0.015857 0.107934 -0.215379
0.015857 0.107934 -0.205379
-0.294143 -0.202066 0.124621
-0.294143 -0.202066 0.134621
-0.294143 -0.192066 0.134621
-0.284143 -0.202066 0.134621
-0.284143 -0.202066 0.144621
-0.284143 -0.192066 0.144621
-0.294143 -0.182066 0.134621
-0.294143 -0.182066 0.144621
-0.294143 -0.172066 0.144621
-0.284143 -0.182066 0.144621
-0.284143 -0.172066 0.144621
-0.274143 -0.202066 0.144621
-0.274143 -0.192066 0.144621
-0.294143 -0.162066 0.144621
-0.284143 -0.172066 0.154621
-0.274143 -0.202066 0.154621
-0.274143 -0.192066 0.154621
-0.264143 -0.202066 0.154621
-0.264143 -0.202066 0.164621
-0.264143 -0.192066 0.164621
-0.274143 -0.182066 0.154621
-0.274143 -0.182066 0.164621
-0.274143 -0.172066 0.154621
-0.274143 -0.172066 0.164621
-0.264143 -0.182066 0.164621
-0.264143 -0.172066 0.164621
-0.264143 -0.172066 0.174621
-0.294143 -0.152066 0.154621
-0.284143 -0.162066 0.154621
-0.284143 -0.162066 0.164621
-0.284143 -0.152066 0.164621
-0.294143 -0.142066 0.164621
-0.294143 -0.132066 0.154621
-0.294143 -0.132066 0.164621
-0.284143 -0.142066 0.164621
-0.284143 -0.132066 0.174621
-0.274143 -0.162066 0.164621
-0.274143 -0.152066 0.164621
-0.274143 -0.152066 0.174621
-0.264143 -0.162066 0.174621
-0.264143 -0.152066 0.174621
-0.264143 -0.152066 0.184621
-0.274143 -0.142066 0.174621
-0.274143 -0.132066 0.174621
-0.274143 -0.132066 0.184621
-0.264143 -0.142066 0.184621
-0.264143 -0.132066 0.184621
-0.264143 -0.132066 0.194621
-0.254143 -0.202066 0.164621
-0.254143 -0.192066 0.164621
-0.254143 -0.192066 0.174621
-0.244143 -0.202066 0.174621
-0.244143 -0.202066 0.184621
-0.244143 -0.192066 0.174621
-0.244143 -0.192066 0.184621
-0.254143 -0.182066 0.174621
-0.254143 -0.172066 0.174621
-0.244143 -0.182066 0.174621
-0.244143 -0.182066 0.184621
-0.244143 -0.172066 0.184621
-0.234143 -0.202066 0.184621
-0.234143 -0.192066 0.184621
-0.234143 -0.182066 0.184621
-0.224143 -0.202066 0.194621
-0.224143 -0.192066 0.194621
-0.234143 -0.182066 0.194621
-0.234143 -0.172066 0.194621
-0.224143 -0.182066 0.194621
-0.224143 -0.172066 0.194621
-0.254143 -0.162066 0.174621
-0.254143 -0.162066 0.184621
-0.254143 -0.152066 0.184621
-0.244143 -0.162066 0.184621
-0.244143 -0.152066 0.184621
-0.254143 -0.142066 0.184621
-0.244143 -0.162066 0.194621
-0.244143 -0.152066 0.194621
-0.254143 -0.142066 0.194621
-0.254143 -0.132066 0.194621
-0.244143 -0.142066 0.194621
-0.244143 -0.132066 0.194621
-0.244143 -0.132066 0.204621
-0.234143 -0.162066 0.194621
-0.234143 -0.152066 0.194621
-0.224143 -0.162066 0.194621
-0.224143 -0.162066 0.204621
-0.224143 -0.152066 0.204621
-0.234143 -0.142066 0.204621
-0.234143 -0.132066 0.204621
-0.224143 -0.142066 0.204621
-0.224143 -0.132066 0.204621
-0.224143 -0.132066 0.214621
-0.294143 -0.122066 0.164621
-0.294143 -0.112066 0.164621
-0.284143 -0.122066 0.164621
-0.284143 -0.122066 0.174621
-0.284143 -0.112066 0.174621
-0.294143 -0.102066 0.164621
-0.294143 -0.092066 0.164621
-0.284143 -0.102066 0.164621
-0.284143 -0.102066 0.174621
-0.284143 -0.092066 0.174621
-0.274143 -0.122066 0.184621
-0.274143 -0.112066 0.184621
-0.264143 -0.112066 0.184621
-0.274143 -0.102066 0.174621
-0.274143 -0.102066 0.184621
-0.274143 -0.092066 0.174621
-0.274143 -0.092066 0.184621
-0.264143 -0.102066 0.184621
-0.264143 -0.092066 0.184621
-0.264143 -0.122066 0.194621
-0.264143 -0.112066 0.194621
-0.274143 -0.102066 0.194621
-0.264143 -0.102066 0.194621
-0.294143 -0.082066 0.154621
-0.294143 -0.082066 0.164621
-0.294143 -0.072066 0.164621
-0.284143 -0.082066 0.164621
-0.284143 -0.072066 0.164621
-0.294143 -0.062066 0.164621
-0.294143 -0.062066 0.174621
-0.294143 -0.052066 0.174621
-0.284143 -0.062066 0.174621
-0.284143 -0.052066 0.174621
-0.274143 -0.082066 0.174621
-0.274143 -0.072066 0.174621
-0.264143 -0.082066 0.184621
-0.264143 -0.072066 0.174621
-0.274143 -0.062066 0.174621
-0.274143 -0.052066 0.174621
-0.264143 -0.062066 0.174621
-0.264143 -0.062066 0.184621
-0.264143 -0.052066 0.174621
-0.264143 -0.052066 0.184621
-0.254143 -0.092066 0.184621
-0.254143 -0.122066 0.194621
-0.254143 -0.112066 0.194621
-0.244143 -0.122066 0.204621
-0.244143 -0.112066 0.204621
-0.254143 -0.102066 0.194621
-0.254143 -0.092066 0.194621
-0.244143 -0.102066 0.204621
-0.244143 -0.092066 0.194621
-0.234143 -0.122066 0.204621
-0.234143 -0.112066 0.204621
-0.234143 -0.122066 0.214621
-0.234143 -0.112066 0.214621
-0.224143 -0.122066 0.214621
-0.224143 -0.112066 0.214621
-0.234143 -0.102066 0.204621
-0.234143 -0.092066 0.194621
-0.234143 -0.092066 0.204621
-0.224143 -0.092066 0.204621
-0.224143 -0.102066 0.214621
-0.254143 -0.082066 0.184621
-0.254143 -0.072066 0.184621
-0.244143 -0.072066 0.184621
-0.254143 -0.062066 0.184621
-0.254143 -0.052066 0.184621
-0.244143 -0.062066 0.184621
-0.244143 -0.052066 0.184621
-0.234143 -0.062066 0.184621
-0.234143 -0.052066 0.184621
-0.224143 -0.062066 0.184621
-0.224143 -0.052066 0.184621
-0.244143 -0.082066 0.194621
-0.234143 -0.082066 0.194621
-0.234143 -0.072066 0.194621
-0.224143 -0.082066 0.194621
-0.224143 -0.082066 0.204621
-0.224143 -0.072066 0.194621
-0.224143 -0.062066 0.194621
-0.214143 -0.202066 0.194621
-0.214143 -0.202066 0.204621
-0.214143 -0.192066 0.194621
-0.214143 -0.192066 0.204621
-0.204143 -0.202066 0.204621
-0.204143 -0.192066 0.204621
-0.214143 -0.182066 0.204621
-0.214143 -0.172066 0.204621
-0.214143 -0.182066 0.214621
-0.204143 -0.182066 0.214621
-0.204143 -0.172066 0.214621
-0.194143 -0.202066 0.204621
-0.194143 -0.202066 0.214621
-0.194143 -0.192066 0.214621
-0.184143 -0.202066 0.214621
-0.184143 -0.192066 0.214621
-0.194143 -0.182066 0.214621
-0.194143 -0.172066 0.214621
-0.184143 -0.182066 0.214621
-0.184143 -0.172066 0.214621
-0.184143 -0.172066 0.224621
-0.214143 -0.162066 0.204621
-0.214143 -0.152066 0.214621
-0.204143 -0.162066 0.214621
-0.204143 -0.152066 0.214621
-0.214143 -0.142066 0.204621
-0.214143 -0.142066 0.214621
-0.214143 -0.132066 0.214621
-0.204143 -0.142066 0.214621
-0.204143 -0.132066 0.214621
-0.204143 -0.132066 0.224621
-0.194143 -0.162066 0.214621
-0.194143 -0.152066 0.214621
-0.184143 -0.162066 0.214621
-0.184143 -0.152066 0.224621
-0.194143 -0.142066 0.224621
-0.194143 -0.132066 0.214621
-0.194143 -0.132066 0.224621
-0.184143 -0.142066 0.224621
-0.184143 -0.132066 0.224621
-0.174143 -0.202066 0.214621
-0.174143 -0.202066 0.224621
-0.174143 -0.192066 0.224621
-0.164143 -0.202066 0.224621
-0.164143 -0.192066 0.224621
-0.174143 -0.182066 0.214621
-0.174143 -0.182066 0.224621
-0.174143 -0.172066 0.224621
-0.164143 -0.182066 0.224621
-0.164143 -0.172066 0.224621
-0.154143 -0.202066 0.224621
-0.154143 -0.192066 0.224621
-0.144143 -0.202066 0.224621
-0.144143 -0.192066 0.224621
-0.154143 -0.182066 0.224621
-0.154143 -0.172066 0.224621
-0.144143 -0.182066 0.224621
-0.144143 -0.172066 0.224621
-0.174143 -0.162066 0.224621
-0.174143 -0.152066 0.224621
-0.164143 -0.162066 0.224621
-0.164143 -0.152066 0.224621
-0.174143 -0.142066 0.224621
-0.174143 -0.132066 0.224621
-0.164143 -0.142066 0.224621
-0.154143 -0.162066 0.224621
-0.144143 -0.162066 0.224621
-0.164143 -0.152066 0.234621
-0.174143 -0.142066 0.234621
-0.174143 -0.132066 0.234621
-0.164143 -0.142066 0.234621
-0.164143 -0.132066 0.234621
-0.154143 -0.152066 0.234621
-0.144143 -0.162066 0.234621
-0.144143 -0.152066 0.234621
-0.154143 -0.142066 0.234621
-0.154143 -0.132066 0.234621
-0.144143 -0.142066 0.234621
-0.144143 -0.132066 0.234621
-0.214143 -0.122066 0.214621
-0.214143 -0.112066 0.214621
-0.204143 -0.122066 0.224621
-0.204143 -0.112066 0.214621
-0.214143 -0.092066 0.204621
-0.204143 -0.092066 0.204621
-0.214143 -0.102066 0.214621
-0.214143 -0.092066 0.214621
-0.204143 -0.102066 0.214621
-0.204143 -0.092066 0.214621
-0.194143 -0.122066 0.224621
-0.194143 -0.112066 0.224621
-0.184143 -0.122066 0.224621
-0.184143 -0.112066 0.224621
-0.194143 -0.092066 0.204621
-0.194143 -0.102066 0.214621
-0.194143 -0.092066 0.214621
-0.184143 -0.102066 0.224621
-0.184143 -0.092066 0.214621
-0.214143 -0.062066 0.184621
-0.214143 -0.082066 0.194621
-0.214143 -0.082066 0.204621
-0.214143 -0.072066 0.194621
-0.204143 -0.082066 0.204621
-0.204143 -0.072066 0.194621
-0.214143 -0.062066 0.194621
-0.214143 -0.052066 0.194621
-0.204143 -0.062066 0.194621
-0.204143 -0.052066 0.194621
-0.194143 -0.082066 0.204621
-0.194143 -0.072066 0.194621
-0.194143 -0.072066 0.204621
-0.184143 -0.082066 0.204621
-0.184143 -0.072066 0.204621
-0.194143 -0.062066 0.194621
-0.194143 -0.052066 0.194621
-0.184143 -0.062066 0.194621
-0.184143 -0.052066 0.194621
-0.174143 -0.112066 0.224621
-0.164143 -0.112066 0.224621
-0.174143 -0.102066 0.214621
-0.174143 -0.092066 0.214621
-0.164143 -0.102066 0.214621
-0.164143 -0.102066 0.224621
-0.164143 -0.092066 0.214621
-0.154143 -0.112066 0.224621
-0.154143 -0.102066 0.214621
-0.154143 -0.102066 0.224621
-0.154143 -0.092066 0.214621
-0.144143 -0.102066 0.224621
-0.144143 -0.092066 0.214621
-0.174143 -0.082066 0.204621
-0.174143 -0.072066 0.204621
-0.164143 -0.082066 0.204621
-0.164143 -0.072066 0.194621
-0.164143 -0.072066 0.204621
-0.174143 -0.062066 0.194621
-0.174143 -0.052066 0.194621
-0.164143 -0.062066 0.194621
-0.164143 -0.062066 0.204621
-0.164143 -0.052066 0.194621
-0.154143 -0.082066 0.204621
-0.154143 -0.072066 0.204621
-0.144143 -0.082066 0.204621
-0.144143 -0.072066 0.204621
-0.154143 -0.062066 0.194621
-0.154143 -0.052066 0.194621
-0.144143 -0.062066 0.194621
-0.144143 -0.052066 0.194621
-0.174143 -0.122066 0.234621
-0.164143 -0.122066 0.234621
-0.154143 -0.122066 0.234621
-0.144143 -0.122066 0.234621
-0.144143 -0.112066 0.234621
-0.294143 -0.042066 0.164621
-0.294143 -0.032066 0.164621
-0.294143 -0.042066 0.174621
-0.284143 -0.042066 0.174621
-0.284143 -0.032066 0.174621
-0.294143 -0.022066 0.164621
-0.294143 -0.012066 0.164621
-0.284143 -0.022066 0.164621
-0.284143 -0.012066 0.164621
-0.274143 -0.042066 0.174621
-0.274143 -0.032066 0.174621
-0.264143 -0.042066 0.184621
-0.264143 -0.032066 0.174621
-0.264143 -0.032066 0.184621
-0.274143 -0.012066 0.164621
-0.274143 -0.022066 0.174621
-0.274143 -0.012066 0.174621
-0.264143 -0.022066 0.174621
-0.264143 -0.012066 0.174621
-0.294143 -0.002066 0.154621
-0.294143 -0.002066 0.164621
-0.294143 0.007934 0.154621
-0.284143 -0.002066 0.164621
-0.284143 0.007934 0.154621
-0.294143 0.017934 0.154621
-0.294143 0.027934 0.154621
-0.284143 0.017934 0.154621
-0.284143 0.027934 0.154621
-0.274143 -0.002066 0.164621
-0.274143 0.007934 0.154621
-0.274143 0.007934 0.164621
-0.264143 -0.002066 0.164621
-0.264143 0.007934 0.164621
-0.264143 -0.002066 0.174621
-0.274143 0.017934 0.154621
-0.274143 0.027934 0.154621
-0.264143 0.017934 0.154621
-0.264143 0.027934 0.154621
-0.254143 -0.042066 0.184621
-0.254143 -0.032066 0.174621
-0.254143 -0.032066 0.184621
-0.244143 -0.042066 0.184621
-0.244143 -0.032066 0.184621
-0.254143 -0.022066 0.174621
-0.254143 -0.012066 0.174621
-0.244143 -0.022066 0.184621
-0.244143 -0.012066 0.174621
-0.234143 -0.042066 0.184621
-0.234143 -0.032066 0.184621
-0.224143 -0.032066 0.184621
-0.234143 -0.022066 0.184621
-0.234143 -0.012066 0.174621
-0.224143 -0.022066 0.184621
-0.224143 -0.012066 0.174621
-0.224143 -0.012066 0.184621
-0.234143 -0.042066 0.194621
-0.224143 -0.042066 0.194621
-0.254143 0.007934 0.164621
-0.244143 0.007934 0.164621
-0.254143 -0.002066 0.174621
-0.244143 -0.002066 0.174621
-0.254143 0.017934 0.154621
-0.254143 0.017934 0.164621
-0.254143 0.027934 0.154621
-0.244143 0.017934 0.154621
-0.244143 0.017934 0.164621
-0.244143 0.027934 0.154621
-0.234143 0.007934 0.164621
-0.234143 -0.002066 0.174621
-0.234143 0.007934 0.174621
-0.224143 -0.002066 0.174621
-0.224143 0.007934 0.174621
-0.234143 0.017934 0.154621
-0.234143 0.017934 0.164621
-0.234143 0.027934 0.154621
-0.224143 0.017934 0.164621
-0.224143 0.027934 0.154621
-0.294143 0.037934 0.154621
-0.294143 0.047934 0.154621
-0.284143 0.037934 0.154621
-0.284143 0.047934 0.154621
-0.294143 0.057934 0.154621
-0.294143 0.067934 0.154621
-0.284143 0.057934 0.154621
-0.284143 0.067934 0.154621
-0.274143 0.037934 0.154621
-0.274143 0.047934 0.154621
-0.264143 0.037934 0.164621
-0.264143 0.047934 0.164621
-0.274143 0.057934 0.154621
-0.274143 0.067934 0.154621
-0.264143 0.057934 0.164621
-0.264143 0.067934 0.154621
-0.264143 0.067934 0.164621
-0.294143 0.077934 0.154621
-0.294143 0.087934 0.154621
-0.284143 0.077934 0.154621
-0.284143 0.087934 0.164621
-0.294143 0.097934 0.154621
-0.294143 0.097934 0.164621
-0.294143 0.107934 0.154621
-0.284143 0.097934 0.164621
-0.284143 0.107934 0.154621
-0.274143 0.077934 0.164621
-0.274143 0.087934 0.164621
-0.264143 0.077934 0.154621
-0.264143 0.087934 0.154621
-0.264143 0.087934 0.164621
-0.274143 0.097934 0.164621
-0.274143 0.107934 0.154621
-0.274143 0.107934 0.164621
-0.264143 0.097934 0.164621
-0.264143 0.107934 0.164621
-0.254143 0.037934 0.164621
-0.254143 0.047934 0.164621
-0.244143 0.037934 0.164621
-0.244143 0.047934 0.164621
-0.254143 0.057934 0.164621
-0.254143 0.067934 0.164621
-0.244143 0.057934 0.164621
-0.244143 0.067934 0.164621
-0.234143 0.037934 0.154621
-0.234143 0.047934 0.164621
-0.224143 0.037934 0.154621
-0.224143 0.047934 0.164621
-0.234143 0.057934 0.164621
-0.234143 0.067934 0.164621
-0.224143 0.057934 0.164621
-0.224143 0.067934 0.164621
-0.254143 0.077934 0.154621
-0.254143 0.077934 0.164621
-0.254143 0.087934 0.154621
-0.244143 0.087934 0.164621
-0.254143 0.097934 0.164621
-0.254143 0.107934 0.164621
-0.244143 0.097934 0.164621
-0.244143 0.107934 0.164621
-0.234143 0.077934 0.164621
-0.234143 0.087934 0.164621
-0.224143 0.077934 0.164621
-0.224143 0.087934 0.154621
-0.224143 0.087934 0.164621
-0.234143 0.097934 0.154621
-0.234143 0.097934 0.164621
-0.234143 0.107934 0.164621
-0.224143 0.097934 0.154621
-0.224143 0.107934 0.164621
-0.214143 -0.032066 0.184621
-0.214143 -0.022066 0.184621
-0.214143 -0.012066 0.174621
-0.204143 -0.022066 0.184621
-0.204143 -0.012066 0.184621
-0.194143 -0.032066 0.184621
-0.194143 -0.022066 0.184621
-0.194143 -0.012066 0.184621
-0.184143 -0.022066 0.184621
-0.184143 -0.012066 0.184621
-0.214143 -0.042066 0.194621
-0.204143 -0.042066 0.194621
-0.204143 -0.032066 0.194621
-0.194143 -0.042066 0.194621
-0.194143 -0.032066 0.194621
-0.184143 -0.042066 0.194621
-0.184143 -0.032066 0.194621
-0.214143 -0.002066 0.174621
-0.214143 0.007934 0.174621
-0.204143 -0.002066 0.174621
-0.204143 0.007934 0.174621
-0.214143 0.017934 0.164621
-0.214143 0.027934 0.154621
-0.204143 0.017934 0.164621
-0.204143 0.027934 0.154621
-0.194143 -0.002066 0.174621
-0.194143 0.007934 0.174621
-0.184143 -0.002066 0.174621
-0.184143 0.007934 0.174621
-0.194143 0.017934 0.164621
-0.194143 0.027934 0.154621
-0.184143 0.017934 0.164621
-0.184143 0.027934 0.154621
-0.184143 0.017934 0.174621
-0.174143 -0.022066 0.184621
-0.174143 -0.012066 0.184621
-0.164143 -0.022066 0.184621
-0.164143 -0.012066 0.184621
-0.154143 -0.022066 0.184621
-0.154143 -0.012066 0.184621
-0.144143 -0.022066 0.184621
-0.144143 -0.012066 0.184621
-0.174143 -0.042066 0.194621
-0.174143 -0.032066 0.194621
-0.164143 -0.042066 0.194621
-0.164143 -0.032066 0.194621
-0.154143 -0.042066 0.194621
-0.154143 -0.032066 0.194621
-0.144143 -0.042066 0.194621
-0.144143 -0.032066 0.194621
-0.154143 -0.022066 0.194621
-0.144143 -0.022066 0.194621
-0.174143 -0.002066 0.174621
-0.174143 0.007934 0.174621
-0.164143 -0.002066 0.174621
-0.164143 -0.002066 0.184621
-0.164143 0.007934 0.174621
-0.174143 0.017934 0.164621
-0.174143 0.027934 0.154621
-0.174143 0.027934 0.164621
-0.164143 0.017934 0.164621
-0.164143 0.027934 0.154621
-0.164143 0.017934 0.174621
-0.154143 -0.002066 0.174621
-0.154143 0.007934 0.174621
-0.144143 -0.002066 0.174621
-0.144143 -0.002066 0.184621
-0.144143 0.007934 0.174621
-0.154143 0.017934 0.164621
-0.154143 0.027934 0.164621
-0.144143 0.027934 0.154621
-0.144143 0.027934 0.164621
-0.154143 0.017934 0.174621
-0.144143 0.017934 0.174621
-0.214143 0.037934 0.154621
-0.214143 0.047934 0.154621
-0.204143 0.037934 0.154621
-0.204143 0.047934 0.154621
-0.214143 0.057934 0.154621
-0.214143 0.057934 0.164621
-0.214143 0.067934 0.164621
-0.204143 0.057934 0.164621
-0.204143 0.067934 0.164621
-0.194143 0.037934 0.154621
-0.194143 0.047934 0.154621
-0.184143 0.037934 0.154621
-0.184143 0.047934 0.154621
-0.184143 0.047934 0.164621
-0.194143 0.057934 0.154621
-0.194143 0.067934 0.164621
-0.184143 0.057934 0.154621
-0.184143 0.067934 0.154621
-0.184143 0.067934 0.164621
-0.214143 0.077934 0.164621
-0.214143 0.087934 0.164621
-0.204143 0.077934 0.164621
-0.204143 0.087934 0.164621
-0.214143 0.097934 0.164621
-0.214143 0.107934 0.164621
-0.204143 0.097934 0.164621
-0.204143 0.107934 0.164621
-0.194143 0.077934 0.164621
-0.194143 0.087934 0.164621
-0.184143 0.077934 0.164621
-0.184143 0.087934 0.164621
-0.194143 0.097934 0.164621
-0.194143 0.107934 0.164621
-0.184143 0.097934 0.164621
-0.184143 0.107934 0.164621
-0.174143 0.037934 0.154621
-0.174143 0.047934 0.154621
-0.164143 0.037934 0.154621
-0.164143 0.047934 0.154621
-0.174143 0.057934 0.154621
-0.174143 0.067934 0.154621
-0.164143 0.057934 0.154621
-0.164143 0.067934 0.154621
-0.154143 0.037934 0.154621
-0.154143 0.047934 0.154621
-0.144143 0.037934 0.154621
-0.144143 0.047934 0.154621
-0.154143 0.057934 0.154621
-0.154143 0.067934 0.154621
-0.144143 0.057934 0.154621
-0.144143 0.067934 0.154621
-0.174143 0.077934 0.154621
-0.174143 0.077934 0.164621
-0.174143 0.087934 0.164621
-0.164143 0.077934 0.154621
-0.164143 0.087934 0.154621
-0.174143 0.097934 0.164621
-0.174143 0.107934 0.164621
-0.164143 0.097934 0.154621
-0.164143 0.097934 0.164621
-0.164143 0.107934 0.164621
-0.154143 0.077934 0.154621
-0.154143 0.087934 0.154621
-0.144143 0.077934 0.154621
-0.144143 0.087934 0.154621
-0.154143 0.097934 0.154621
-0.154143 0.107934 0.164621
-0.144143 0.097934 0.154621
-0.144143 0.107934 0.154621
-0.134143 -0.202066 0.224621
-0.134143 -0.192066 0.224621
-0.124143 -0.202066 0.224621
-0.124143 -0.192066 0.224621
-0.134143 -0.182066 0.224621
-0.134143 -0.172066 0.224621
-0.114143 -0.202066 0.224621
-0.114143 -0.192066 0.224621
-0.104143 -0.202066 0.224621
-0.104143 -0.192066 0.224621
-0.094143 -0.202066 0.224621
-0.134143 -0.172066 0.234621
-0.124143 -0.172066 0.234621
-0.104143 -0.192066 0.234621
-0.114143 -0.182066 0.234621
-0.114143 -0.172066 0.234621
-0.104143 -0.182066 0.234621
-0.104143 -0.172066 0.244621
-0.134143 -0.162066 0.234621
-0.134143 -0.152066 0.234621
-0.124143 -0.162066 0.234621
-0.124143 -0.152066 0.244621
-0.134143 -0.142066 0.244621
-0.134143 -0.132066 0.234621
-0.124143 -0.142066 0.244621
-0.124143 -0.132066 0.234621
-0.114143 -0.162066 0.244621
-0.114143 -0.152066 0.244621
-0.104143 -0.162066 0.244621
-0.104143 -0.152066 0.244621
-0.114143 -0.142066 0.244621
-0.114143 -0.132066 0.234621
-0.114143 -0.132066 0.244621
-0.104143 -0.142066 0.244621
-0.104143 -0.132066 0.234621
-0.094143 -0.192066 0.234621
-0.084143 -0.202066 0.234621
-0.084143 -0.192066 0.234621
-0.094143 -0.182066 0.234621
-0.094143 -0.182066 0.244621
-0.094143 -0.172066 0.244621
-0.084143 -0.182066 0.244621
-0.084143 -0.172066 0.244621
-0.074143 -0.202066 0.234621
-0.074143 -0.192066 0.244621
-0.064143 -0.202066 0.234621
-0.064143 -0.202066 0.244621
-0.064143 -0.192066 0.244621
-0.074143 -0.182066 0.244621
-0.074143 -0.172066 0.244621
-0.064143 -0.182066 0.244621
-0.064143 -0.172066 0.244621
-0.094143 -0.162066 0.244621
-0.094143 -0.152066 0.244621
-0.084143 -0.162066 0.244621
-0.084143 -0.152066 0.244621
-0.094143 -0.142066 0.244621
-0.094143 -0.132066 0.234621
-0.084143 -0.142066 0.244621
-0.084143 -0.132066 0.234621
-0.074143 -0.162066 0.244621
-0.074143 -0.152066 0.244621
-0.064143 -0.162066 0.244621
-0.064143 -0.152066 0.244621
-0.074143 -0.142066 0.234621
-0.074143 -0.142066 0.244621
-0.074143 -0.132066 0.234621
-0.064143 -0.142066 0.234621
-0.064143 -0.142066 0.244621
-0.064143 -0.132066 0.234621
-0.134143 -0.112066 0.224621
-0.124143 -0.112066 0.224621
-0.134143 -0.102066 0.214621
-0.134143 -0.102066 0.224621
-0.134143 -0.092066 0.214621
-0.124143 -0.102066 0.224621
-0.124143 -0.092066 0.214621
-0.114143 -0.112066 0.224621
-0.104143 -0.122066 0.224621
-0.104143 -0.112066 0.224621
-0.114143 -0.102066 0.224621
-0.114143 -0.092066 0.214621
-0.104143 -0.102066 0.224621
-0.104143 -0.092066 0.214621
-0.134143 -0.082066 0.204621
-0.134143 -0.072066 0.204621
-0.124143 -0.082066 0.204621
-0.124143 -0.072066 0.204621
-0.134143 -0.082066 0.214621
-0.124143 -0.082066 0.214621
-0.134143 -0.062066 0.194621
-0.134143 -0.052066 0.194621
-0.124143 -0.062066 0.194621
-0.124143 -0.062066 0.204621
-0.124143 -0.052066 0.204621
-0.114143 -0.082066 0.204621
-0.114143 -0.072066 0.204621
-0.104143 -0.082066 0.204621
-0.104143 -0.072066 0.204621
-0.114143 -0.082066 0.214621
-0.104143 -0.082066 0.214621
-0.114143 -0.062066 0.194621
-0.114143 -0.052066 0.204621
-0.104143 -0.062066 0.194621
-0.104143 -0.052066 0.204621
-0.094143 -0.112066 0.224621
-0.084143 -0.112066 0.224621
-0.094143 -0.102066 0.214621
-0.094143 -0.102066 0.224621
-0.094143 -0.092066 0.214621
-0.084143 -0.102066 0.224621
-0.084143 -0.092066 0.214621
-0.074143 -0.112066 0.224621
-0.064143 -0.112066 0.224621
-0.074143 -0.102066 0.214621
-0.074143 -0.102066 0.224621
-0.074143 -0.092066 0.214621
-0.064143 -0.102066 0.224621
-0.064143 -0.092066 0.214621
-0.094143 -0.082066 0.204621
-0.094143 -0.072066 0.204621
-0.084143 -0.082066 0.204621
-0.084143 -0.072066 0.204621
-0.084143 -0.082066 0.214621
-0.094143 -0.062066 0.194621
-0.094143 -0.062066 0.204621
-0.094143 -0.052066 0.204621
-0.084143 -0.062066 0.204621
-0.084143 -0.052066 0.204621
-0.074143 -0.072066 0.204621
-0.064143 -0.072066 0.204621
-0.074143 -0.082066 0.214621
-0.064143 -0.082066 0.214621
-0.074143 -0.062066 0.204621
-0.074143 -0.052066 0.204621
-0.064143 -0.062066 0.204621
-0.064143 -0.052066 0.204621
-0.134143 -0.122066 0.234621
-0.134143 -0.112066 0.234621
-0.124143 -0.122066 0.234621
-0.114143 -0.122066 0.234621
-0.104143 -0.122066 0.234621
-0.094143 -0.122066 0.234621
-0.084143 -0.122066 0.234621
-0.074143 -0.122066 0.234621
-0.064143 -0.122066 0.234621
-0.054143 -0.202066 0.244621
-0.054143 -0.192066 0.244621
-0.044143 -0.202066 0.244621
-0.044143 -0.192066 0.244621
-0.054143 -0.182066 0.244621
-0.054143 -0.172066 0.244621
-0.044143 -0.182066 0.244621
-0.044143 -0.172066 0.244621
-0.034143 -0.202066 0.244621
-0.024143 -0.202066 0.244621
-0.034143 -0.202066 0.254621
-0.034143 -0.192066 0.254621
-0.024143 -0.202066 0.254621
-0.024143 -0.192066 0.254621
-0.034143 -0.172066 0.244621
-0.034143 -0.182066 0.254621
-0.034143 -0.172066 0.254621
-0.024143 -0.182066 0.254621
-0.024143 -0.172066 0.254621
-0.054143 -0.162066 0.244621
-0.054143 -0.152066 0.244621
-0.044143 -0.162066 0.244621
-0.044143 -0.152066 0.244621
-0.054143 -0.142066 0.234621
-0.054143 -0.132066 0.234621
-0.044143 -0.142066 0.234621
-0.044143 -0.132066 0.234621
-0.034143 -0.162066 0.244621
-0.034143 -0.152066 0.244621
-0.024143 -0.162066 0.244621
-0.024143 -0.152066 0.244621
-0.024143 -0.162066 0.254621
-0.024143 -0.152066 0.254621
-0.034143 -0.142066 0.234621
-0.034143 -0.142066 0.244621
-0.034143 -0.132066 0.234621
-0.024143 -0.142066 0.234621
-0.024143 -0.132066 0.234621
-0.014143 -0.202066 0.244621
-0.004143 -0.202066 0.244621
-0.014143 -0.202066 0.254621
-0.014143 -0.192066 0.254621
-0.004143 -0.192066 0.254621
-0.014143 -0.182066 0.254621
-0.014143 -0.172066 0.254621
-0.004143 -0.182066 0.254621
-0.004143 -0.172066 0.254621
0.005857 -0.202066 0.234621
0.005857 -0.202066 0.244621
0.015857 -0.202066 0.244621
0.005857 -0.192066 0.254621
0.015857 -0.192066 0.254621
0.005857 -0.182066 0.254621
0.005857 -0.172066 0.254621
0.015857 -0.182066 0.254621
0.015857 -0.172066 0.254621
-0.014143 -0.152066 0.244621
-0.014143 -0.162066 0.254621
-0.004143 -0.162066 0.254621
-0.004143 -0.152066 0.254621
-0.014143 -0.142066 0.244621
-0.014143 -0.132066 0.234621
-0.014143 -0.132066 0.244621
-0.004143 -0.142066 0.244621
-0.004143 -0.132066 0.234621
-0.004143 -0.132066 0.244621
0.005857 -0.162066 0.254621
0.005857 -0.152066 0.254621
0.015857 -0.162066 0.254621
0.015857 -0.152066 0.254621
0.005857 -0.142066 0.244621
0.005857 -0.132066 0.244621
0.015857 -0.142066 0.244621
0.015857 -0.132066 0.244621
0.015857 -0.142066 0.254621
-0.054143 -0.122066 0.224621
-0.054143 -0.112066 0.224621
-0.044143 -0.122066 0.224621
-0.044143 -0.112066 0.224621
-0.054143 -0.102066 0.224621
-0.054143 -0.092066 0.214621
-0.044143 -0.102066 0.214621
-0.044143 -0.102066 0.224621
-0.044143 -0.092066 0.214621
-0.034143 -0.122066 0.224621
-0.034143 -0.112066 0.224621
-0.024143 -0.122066 0.224621
-0.024143 -0.112066 0.224621
-0.034143 -0.102066 0.214621
-0.034143 -0.102066 0.224621
-0.034143 -0.092066 0.214621
-0.024143 -0.102066 0.214621
-0.024143 -0.102066 0.224621
-0.024143 -0.092066 0.214621
-0.054143 -0.072066 0.204621
-0.044143 -0.072066 0.204621
-0.054143 -0.082066 0.214621
-0.044143 -0.082066 0.214621
-0.054143 -0.062066 0.204621
-0.054143 -0.052066 0.204621
-0.044143 -0.062066 0.204621
-0.044143 -0.052066 0.204621
-0.034143 -0.082066 0.204621
-0.034143 -0.072066 0.204621
-0.034143 -0.082066 0.214621
-0.024143 -0.082066 0.214621
-0.024143 -0.072066 0.214621
-0.034143 -0.062066 0.204621
-0.034143 -0.052066 0.204621
-0.024143 -0.052066 0.204621
-0.024143 -0.062066 0.214621
-0.024143 -0.052066 0.214621
-0.014143 -0.112066 0.224621
-0.004143 -0.112066 0.224621
-0.014143 -0.102066 0.224621
-0.014143 -0.092066 0.214621
-0.004143 -0.102066 0.224621
-0.004143 -0.092066 0.214621
-0.004143 -0.092066 0.224621
0.005857 -0.102066 0.224621
0.005857 -0.092066 0.224621
0.015857 -0.102066 0.224621
0.015857 -0.092066 0.224621
-0.014143 -0.082066 0.214621
-0.014143 -0.072066 0.214621
-0.004143 -0.082066 0.214621
-0.004143 -0.072066 0.214621
-0.014143 -0.062066 0.214621
-0.014143 -0.052066 0.214621
-0.004143 -0.062066 0.214621
-0.004143 -0.052066 0.214621
0.005857 -0.082066 0.224621
0.005857 -0.072066 0.214621
0.015857 -0.082066 0.214621
0.015857 -0.082066 0.224621
0.015857 -0.072066 0.214621
0.005857 -0.062066 0.214621
0.005857 -0.052066 0.214621
0.015857 -0.062066 0.214621
0.015857 -0.052066 0.214621
-0.054143 -0.122066 0.234621
-0.034143 -0.122066 0.234621
-0.024143 -0.122066 0.234621
-0.014143 -0.122066 0.234621
-0.014143 -0.112066 0.234621
-0.004143 -0.122066 0.234621
-0.004143 -0.112066 0.234621
0.005857 -0.122066 0.234621
0.005857 -0.122066 0.244621
0.005857 -0.112066 0.234621
0.015857 -0.122066 0.234621
0.015857 -0.122066 0.244621
0.015857 -0.112066 0.234621
0.015857 -0.102066 0.234621
-0.094143 0.097934 0.144621
-0.134143 -0.012066 0.184621
-0.124143 -0.012066 0.184621
-0.114143 -0.022066 0.184621
-0.114143 -0.012066 0.184621
-0.104143 -0.022066 0.184621
-0.104143 -0.012066 0.184621
-0.134143 -0.042066 0.194621
-0.134143 -0.032066 0.194621
-0.124143 -0.042066 0.194621
-0.124143 -0.042066 0.204621
-0.124143 -0.032066 0.194621
-0.134143 -0.022066 0.194621
-0.124143 -0.022066 0.194621
-0.114143 -0.042066 0.204621
-0.114143 -0.032066 0.194621
-0.104143 -0.042066 0.204621
-0.104143 -0.032066 0.194621
-0.114143 -0.022066 0.194621
-0.104143 -0.022066 0.194621
-0.134143 -0.002066 0.174621
-0.134143 -0.002066 0.184621
-0.134143 0.007934 0.174621
-0.124143 -0.002066 0.174621
-0.124143 0.007934 0.174621
-0.134143 0.017934 0.164621
-0.134143 0.027934 0.164621
-0.124143 0.017934 0.164621
-0.124143 0.027934 0.164621
-0.124143 0.017934 0.174621
-0.114143 -0.002066 0.174621
-0.114143 -0.002066 0.184621
-0.114143 0.007934 0.174621
-0.104143 -0.002066 0.174621
-0.104143 -0.002066 0.184621
-0.104143 0.007934 0.174621
-0.114143 0.017934 0.164621
-0.114143 0.027934 0.154621
-0.114143 0.027934 0.164621
-0.104143 0.017934 0.164621
-0.104143 0.027934 0.164621
-0.114143 0.017934 0.174621
-0.104143 0.017934 0.174621
-0.094143 -0.022066 0.184621
-0.094143 -0.012066 0.184621
-0.084143 -0.012066 0.184621
-0.074143 -0.012066 0.184621
-0.064143 -0.012066 0.184621
-0.094143 -0.042066 0.204621
-0.094143 -0.032066 0.194621
-0.094143 -0.032066 0.204621
-0.084143 -0.042066 0.204621
-0.084143 -0.032066 0.194621
-0.084143 -0.022066 0.194621
-0.074143 -0.042066 0.204621
-0.074143 -0.032066 0.194621
-0.064143 -0.042066 0.204621
-0.064143 -0.032066 0.194621
-0.074143 -0.022066 0.194621
-0.064143 -0.022066 0.194621
-0.094143 -0.002066 0.174621
-0.094143 -0.002066 0.184621
-0.094143 0.007934 0.174621
-0.084143 -0.002066 0.184621
-0.084143 0.007934 0.174621
-0.094143 0.017934 0.164621
-0.094143 0.027934 0.164621
-0.084143 0.017934 0.164621
-0.084143 0.027934 0.164621
-0.094143 0.017934 0.174621
-0.074143 -0.002066 0.184621
-0.074143 0.007934 0.174621
-0.064143 -0.002066 0.184621
-0.064143 0.007934 0.174621
-0.074143 0.017934 0.164621
-0.074143 0.027934 0.164621
-0.064143 0.027934 0.164621
-0.074143 0.017934 0.174621
-0.064143 0.017934 0.174621
-0.134143 0.037934 0.154621
-0.134143 0.047934 0.154621
-0.124143 0.037934 0.154621
-0.124143 0.047934 0.154621
-0.134143 0.057934 0.154621
-0.134143 0.067934 0.154621
-0.124143 0.057934 0.154621
-0.124143 0.067934 0.154621
-0.114143 0.037934 0.154621
-0.114143 0.047934 0.154621
-0.104143 0.037934 0.154621
-0.104143 0.037934 0.164621
-0.104143 0.047934 0.154621
-0.114143 0.057934 0.154621
-0.114143 0.067934 0.154621
-0.104143 0.057934 0.154621
-0.104143 0.067934 0.154621
-0.134143 0.077934 0.154621
-0.134143 0.087934 0.154621
-0.124143 0.077934 0.154621
-0.124143 0.087934 0.154621
-0.134143 0.097934 0.154621
-0.134143 0.107934 0.154621
-0.124143 0.097934 0.154621
-0.124143 0.107934 0.154621
-0.114143 0.077934 0.154621
-0.114143 0.087934 0.154621
-0.104143 0.077934 0.154621
-0.104143 0.087934 0.154621
-0.114143 0.097934 0.154621
-0.114143 0.107934 0.154621
-0.104143 0.097934 0.154621
-0.104143 0.107934 0.154621
-0.094143 0.037934 0.164621
-0.094143 0.047934 0.154621
-0.084143 0.037934 0.164621
-0.084143 0.047934 0.154621
-0.094143 0.057934 0.154621
-0.094143 0.067934 0.154621
-0.084143 0.057934 0.154621
-0.084143 0.067934 0.154621
-0.074143 0.037934 0.164621
-0.074143 0.047934 0.154621
-0.074143 0.047934 0.164621
-0.064143 0.037934 0.164621
-0.064143 0.047934 0.154621
-0.074143 0.057934 0.154621
-0.074143 0.067934 0.154621
-0.064143 0.057934 0.154621
-0.064143 0.067934 0.154621
-0.094143 0.077934 0.154621
-0.094143 0.087934 0.154621
-0.084143 0.077934 0.154621
-0.084143 0.087934 0.154621
-0.094143 0.097934 0.154621
-0.094143 0.097934 0.164621
-0.094143 0.107934 0.154621
-0.084143 0.097934 0.154621
-0.084143 0.107934 0.154621
-0.074143 0.077934 0.154621
-0.074143 0.087934 0.154621
-0.074143 0.087934 0.164621
-0.064143 0.077934 0.154621
-0.064143 0.077934 0.164621
-0.064143 0.087934 0.164621
-0.074143 0.097934 0.154621
-0.074143 0.097934 0.164621
-0.074143 0.107934 0.164621
-0.064143 0.097934 0.164621
-0.064143 0.107934 0.164621
-0.054143 -0.012066 0.184621
-0.044143 -0.022066 0.174621
-0.044143 -0.022066 0.184621
-0.044143 -0.012066 0.184621
-0.034143 -0.032066 0.184621
-0.034143 -0.022066 0.174621
-0.034143 -0.022066 0.184621
-0.034143 -0.012066 0.174621
-0.034143 -0.012066 0.184621
-0.024143 -0.012066 0.184621
-0.054143 -0.042066 0.204621
-0.054143 -0.032066 0.194621
-0.054143 -0.032066 0.204621
-0.044143 -0.042066 0.204621
-0.054143 -0.022066 0.194621
-0.044143 -0.022066 0.194621
-0.034143 -0.042066 0.204621
-0.034143 -0.032066 0.194621
-0.024143 -0.032066 0.194621
-0.034143 -0.022066 0.194621
-0.024143 -0.022066 0.194621
-0.054143 -0.002066 0.174621
-0.054143 -0.002066 0.184621
-0.054143 0.007934 0.174621
-0.044143 -0.002066 0.184621
-0.044143 0.007934 0.174621
-0.054143 0.027934 0.164621
-0.044143 0.017934 0.164621
-0.044143 0.027934 0.164621
-0.054143 0.017934 0.174621
-0.044143 0.017934 0.174621
-0.034143 -0.002066 0.184621
-0.034143 0.007934 0.174621
-0.034143 0.007934 0.184621
-0.024143 -0.002066 0.184621
-0.024143 0.007934 0.184621
-0.034143 0.027934 0.164621
-0.024143 0.017934 0.164621
-0.024143 0.027934 0.164621
-0.034143 0.017934 0.174621
-0.024143 0.017934 0.174621
-0.014143 -0.032066 0.184621
-0.014143 -0.022066 0.184621
-0.014143 -0.012066 0.184621
-0.014143 -0.042066 0.204621
-0.014143 -0.032066 0.194621
-0.004143 -0.042066 0.204621
-0.004143 -0.032066 0.204621
-0.014143 -0.022066 0.194621
-0.004143 -0.022066 0.194621
-0.004143 -0.022066 0.204621
-0.004143 -0.012066 0.194621
0.005857 -0.042066 0.204621
0.005857 -0.032066 0.204621
0.015857 -0.032066 0.204621
0.005857 -0.042066 0.214621
0.015857 -0.042066 0.214621
0.005857 -0.022066 0.194621
0.005857 -0.022066 0.204621
0.005857 -0.012066 0.194621
0.015857 -0.022066 0.194621
0.015857 -0.022066 0.204621
0.015857 -0.012066 0.194621
-0.014143 -0.002066 0.184621
-0.014143 0.007934 0.174621
-0.014143 0.007934 0.184621
-0.004143 -0.002066 0.184621
-0.004143 0.007934 0.184621
-0.014143 0.017934 0.164621
-0.014143 0.027934 0.164621
-0.004143 0.027934 0.164621
-0.014143 0.017934 0.174621
-0.004143 0.017934 0.174621
0.005857 -0.002066 0.184621
0.005857 0.007934 0.184621
0.015857 -0.002066 0.184621
0.015857 0.007934 0.174621
0.015857 0.007934 0.184621
0.005857 0.017934 0.164621
0.005857 0.027934 0.164621
0.015857 0.027934 0.164621
0.005857 0.017934 0.174621
0.015857 0.017934 0.174621
0.015857 0.027934 0.174621
-0.054143 0.037934 0.164621
-0.054143 0.047934 0.164621
-0.044143 0.037934 0.164621
-0.044143 0.047934 0.154621
-0.054143 0.057934 0.154621
-0.054143 0.057934 0.164621
-0.054143 0.067934 0.164621
-0.044143 0.057934 0.164621
-0.044143 0.067934 0.164621
-0.034143 0.037934 0.164621
-0.034143 0.047934 0.164621
-0.024143 0.037934 0.164621
-0.024143 0.047934 0.164621
-0.034143 0.057934 0.164621
-0.034143 0.067934 0.164621
-0.024143 0.057934 0.164621
-0.024143 0.067934 0.164621
-0.054143 0.077934 0.164621
-0.054143 0.087934 0.164621
-0.044143 0.077934 0.164621
-0.044143 0.087934 0.164621
-0.054143 0.097934 0.164621
-0.054143 0.107934 0.164621
-0.044143 0.097934 0.164621
-0.044143 0.107934 0.164621
-0.034143 0.077934 0.164621
-0.034143 0.087934 0.164621
-0.024143 0.077934 0.164621
-0.024143 0.087934 0.164621
-0.034143 0.097934 0.164621
-0.034143 0.107934 0.164621
-0.024143 0.097934 0.164621
-0.024143 0.107934 0.164621
-0.014143 0.037934 0.164621
-0.014143 0.047934 0.164621
-0.004143 0.037934 0.164621
-0.004143 0.047934 0.164621
-0.014143 0.057934 0.164621
-0.004143 0.057934 0.164621
-0.014143 0.067934 0.174621
-0.004143 0.057934 0.174621
-0.004143 0.067934 0.174621
0.005857 0.037934 0.164621
0.005857 0.047934 0.164621
0.015857 0.037934 0.164621
0.015857 0.047934 0.164621
0.005857 0.057934 0.174621
0.005857 0.067934 0.174621
0.015857 0.057934 0.174621
0.015857 0.067934 0.174621
-0.014143 0.077934 0.164621
-0.014143 0.087934 0.164621
-0.004143 0.087934 0.164621
-0.014143 0.077934 0.174621
-0.004143 0.077934 0.174621
-0.014143 0.097934 0.164621
-0.014143 0.107934 0.164621
-0.004143 0.097934 0.164621
-0.004143 0.107934 0.164621
0.005857 0.077934 0.164621
0.015857 0.087934 0.164621
0.005857 0.087934 0.174621
0.015857 0.077934 0.174621
0.015857 0.087934 0.174621
0.005857 0.097934 0.174621
0.005857 0.107934 0.174621
0.015857 0.097934 0.174621
0.015857 0.107934 0.174621
-0.204143 0.117934 -0.175379
-0.194143 0.117934 -0.175379
-0.194143 0.127934 -0.175379
-0.184143 0.117934 -0.185379
-0.184143 0.127934 -0.175379
-0.174143 0.117934 -0.195379
-0.164143 0.117934 -0.195379
-0.174143 0.127934 -0.185379
-0.164143 0.127934 -0.185379
-0.174143 0.137934 -0.175379
-0.164143 0.137934 -0.175379
-0.154143 0.117934 -0.195379
-0.144143 0.117934 -0.195379
-0.154143 0.117934 -0.185379
-0.154143 0.127934 -0.185379
-0.144143 0.127934 -0.185379
-0.154143 0.137934 -0.185379
-0.154143 0.137934 -0.175379
-0.154143 0.147934 -0.175379
-0.144143 0.137934 -0.185379
-0.144143 0.147934 -0.175379
-0.294143 0.117934 -0.135379
-0.294143 0.127934 -0.135379
-0.284143 0.117934 -0.145379
-0.284143 0.127934 -0.145379
-0.284143 0.127934 -0.135379
-0.294143 0.137934 -0.135379
-0.284143 0.137934 -0.135379
-0.274143 0.117934 -0.155379
-0.264143 0.117934 -0.155379
-0.274143 0.117934 -0.145379
-0.274143 0.127934 -0.145379
-0.274143 0.127934 -0.135379
-0.264143 0.117934 -0.145379
-0.264143 0.127934 -0.145379
-0.274143 0.137934 -0.135379
-0.274143 0.147934 -0.135379
-0.264143 0.137934 -0.145379
-0.264143 0.147934 -0.135379
-0.294143 0.127934 -0.125379
-0.294143 0.137934 -0.125379
-0.294143 0.147934 -0.125379
-0.284143 0.147934 -0.125379
-0.264143 0.157934 -0.135379
-0.294143 0.157934 -0.115379
-0.294143 0.167934 -0.115379
-0.284143 0.157934 -0.125379
-0.284143 0.167934 -0.115379
-0.294143 0.177934 -0.115379
-0.284143 0.177934 -0.115379
-0.284143 0.187934 -0.115379
-0.294143 0.187934 -0.105379
-0.284143 0.187934 -0.105379
-0.274143 0.157934 -0.125379
-0.274143 0.167934 -0.115379
-0.264143 0.157934 -0.125379
-0.264143 0.167934 -0.125379
-0.274143 0.177934 -0.115379
-0.274143 0.187934 -0.115379
-0.264143 0.177934 -0.115379
-0.264143 0.187934 -0.115379
-0.254143 0.117934 -0.155379
-0.244143 0.117934 -0.155379
-0.244143 0.127934 -0.155379
-0.254143 0.127934 -0.145379
-0.254143 0.137934 -0.145379
-0.254143 0.147934 -0.145379
-0.254143 0.147934 -0.135379
-0.244143 0.137934 -0.145379
-0.244143 0.147934 -0.145379
-0.244143 0.147934 -0.135379
-0.234143 0.117934 -0.165379
-0.234143 0.127934 -0.155379
-0.224143 0.117934 -0.165379
-0.224143 0.127934 -0.155379
-0.234143 0.147934 -0.155379
-0.224143 0.137934 -0.155379
-0.224143 0.147934 -0.155379
-0.234143 0.137934 -0.145379
