ply
format ascii 1.0
element vertex 1680
property float x
property float y
property float z
end_header
-0.319094 0.113117 -0.365999
-0.327883 0.116234 -0.357194
-0.336456 0.119275 -0.348153
-0.344807 0.122237 -0.338881
-0.352932 0.125119 -0.329386
-0.360825 0.127918 -0.319672
-0.368480 0.130634 -0.309747
-0.375892 0.133263 -0.299617
-0.383058 0.135805 -0.289288
-0.389971 0.138257 -0.278767
-0.396628 0.140618 -0.268063
-0.403024 0.142887 -0.257180
-0.409154 0.145061 -0.246127
-0.415016 0.147140 -0.234911
-0.420604 0.149122 -0.223538
-0.425916 0.151006 -0.212018
-0.430947 0.152791 -0.200357
-0.435695 0.154475 -0.188562
-0.440157 0.156058 -0.176643
-0.444328 0.157537 -0.164606
-0.448207 0.158913 -0.152459
-0.451792 0.160185 -0.140211
-0.455079 0.161351 -0.127869
-0.458067 0.162410 -0.115442
-0.460753 0.163363 -0.102937
-0.463136 0.164209 -0.090364
-0.465215 0.164946 -0.077730
-0.466987 0.165575 -0.065043
-0.468452 0.166094 -0.052313
-0.469609 0.166505 -0.039547
-0.470457 0.166805 -0.026753
-0.470996 0.166996 -0.013941
-0.471224 0.167078 -0.001118
-0.471143 0.167049 0.011707
-0.470752 0.166910 0.024526
-0.470050 0.166661 0.037329
-0.469040 0.166303 0.050109
-0.467721 0.165835 0.062858
-0.466094 0.165258 0.075566
-0.464161 0.164572 0.088226
-0.461922 0.163778 0.100830
-0.459379 0.162876 0.113368
-0.456534 0.161867 0.125833
-0.453389 0.160751 0.138216
-0.449945 0.159530 0.150510
-0.446205 0.158203 0.162705
-0.442172 0.156773 0.174796
-0.437848 0.155239 0.186772
-0.433236 0.153603 0.198627
-0.428338 0.151866 0.210352
-0.423159 0.150029 0.221940
-0.417702 0.148093 0.233384
-0.411969 0.146060 0.244675
-0.405966 0.143930 0.255806
-0.399695 0.141706 0.266771
-0.393162 0.139389 0.277561
-0.386370 0.136979 0.288170
-0.379323 0.134480 0.298590
-0.372027 0.131892 0.308815
-0.364487 0.129217 0.318839
-0.356706 0.126458 0.328653
-0.348691 0.123615 0.338253
-0.340446 0.120690 0.347632
-0.331978 0.117686 0.356783
-0.323291 0.114605 0.365701
-0.314391 0.111448 0.374379
-0.305284 0.108218 0.382812
-0.295977 0.104917 0.390995
-0.286475 0.101546 0.398922
-0.276784 0.098109 0.406587
-0.266911 0.094607 0.413987
-0.256863 0.091043 0.421115
-0.246645 0.087419 0.427967
-0.236266 0.083737 0.434539
-0.225730 0.080000 0.440827
-0.215047 0.076211 0.446825
-0.204222 0.072371 0.452531
-0.193262 0.068484 0.457940
-0.182176 0.064551 0.463050
-0.170969 0.060576 0.467856
-0.159650 0.056561 0.472355
-0.148226 0.052509 0.476545
-0.136704 0.048423 0.480423
-0.125093 0.044304 0.483986
-0.113399 0.040156 0.487232
-0.101631 0.035982 0.490158
-0.089795 0.031784 0.492763
-0.077901 0.027565 0.495045
-0.065955 0.023328 0.497003
-0.053966 0.019075 0.498635
-0.041942 0.014810 0.499941
-0.029890 0.010535 0.500918
-0.017818 0.006253 0.501567
-0.005734 0.001967 0.501888
0.000001 -0.000067 -0.498075
-0.011971 0.004529 -0.497911
-0.023936 0.009121 -0.497417
-0.035885 0.013708 -0.496595
-0.047810 0.018285 -0.495445
-0.059703 0.022851 -0.493968
-0.071558 0.027401 -0.492165
-0.083365 0.031933 -0.490036
-0.095118 0.036444 -0.487584
-0.106807 0.040932 -0.484810
-0.118427 0.045392 -0.481716
-0.129969 0.049822 -0.478303
-0.141425 0.054220 -0.474574
-0.152788 0.058581 -0.470532
-0.164051 0.062905 -0.466179
-0.175205 0.067186 -0.461518
-0.186245 0.071424 -0.456552
-0.197162 0.075614 -0.451285
-0.207949 0.079755 -0.445719
-0.218599 0.083843 -0.439859
-0.229106 0.087876 -0.433708
-0.239461 0.091851 -0.427271
-0.249660 0.095766 -0.420551
-0.259693 0.099617 -0.413553
-0.269557 0.103403 -0.406282
-0.279242 0.107121 -0.398742
-0.288744 0.110768 -0.390938
-0.298056 0.114343 -0.382877
-0.307172 0.117842 -0.374562
-0.316086 0.121264 -0.365999
-0.324792 0.124605 -0.357194
-0.333284 0.127865 -0.348153
-0.341557 0.131041 -0.338881
-0.349605 0.134130 -0.329386
-0.357423 0.137131 -0.319672
-0.365006 0.140042 -0.309747
-0.372349 0.142860 -0.299617
-0.379447 0.145585 -0.289288
-0.386295 0.148213 -0.278767
-0.392889 0.150745 -0.268063
-0.399225 0.153176 -0.257180
-0.405298 0.155508 -0.246127
-0.411104 0.157736 -0.234911
-0.416639 0.159861 -0.223538
-0.421901 0.161881 -0.212018
-0.426885 0.163794 -0.200357
-0.431588 0.165599 -0.188562
-0.436007 0.167296 -0.176643
-0.440140 0.168882 -0.164606
-0.443982 0.170357 -0.152459
-0.447533 0.171720 -0.140211
-0.450789 0.172970 -0.127869
-0.453749 0.174106 -0.115442
-0.456410 0.175127 -0.102937
-0.458771 0.176033 -0.090364
-0.460830 0.176824 -0.077730
-0.462585 0.177498 -0.065043
-0.464037 0.178055 -0.052313
-0.465183 0.178495 -0.039547
-0.466023 0.178817 -0.026753
-0.466556 0.179022 -0.013941
-0.466782 0.179109 -0.001118
-0.466702 0.179078 0.011707
-0.466314 0.178929 0.024526
-0.465619 0.178662 0.037329
-0.464619 0.178278 0.050109
-0.463312 0.177776 0.062858
-0.461701 0.177158 0.075566
-0.459785 0.176423 0.088226
-0.457568 0.175571 0.100830
-0.455049 0.174605 0.113368
-0.452231 0.173523 0.125833
-0.449115 0.172327 0.138216
-0.445704 0.171018 0.150510
-0.441999 0.169596 0.162705
-0.438004 0.168062 0.174796
-0.433721 0.166418 0.186772
-0.429152 0.164664 0.198627
-0.424301 0.162802 0.210352
-0.419170 0.160833 0.221940
-0.413764 0.158757 0.233384
-0.408086 0.156578 0.244675
-0.402139 0.154295 0.255806
-0.395928 0.151911 0.266771
-0.389456 0.149427 0.277561
-0.382728 0.146844 0.288170
-0.375748 0.144165 0.298590
-0.368521 0.141391 0.308815
-0.361051 0.138523 0.318839
-0.353344 0.135565 0.328653
-0.345404 0.132517 0.338253
-0.337237 0.129382 0.347632
-0.328848 0.126162 0.356783
-0.320243 0.122859 0.365701
-0.311427 0.119475 0.374379
-0.302407 0.116013 0.382812
-0.293187 0.112474 0.390995
-0.283774 0.108861 0.398922
-0.274175 0.105176 0.406587
-0.264395 0.101422 0.413987
-0.254441 0.097601 0.421115
-0.244320 0.093716 0.427967
-0.234038 0.089769 0.434539
-0.223603 0.085764 0.440827
-0.213020 0.081701 0.446825
-0.202297 0.077585 0.452531
-0.191440 0.073418 0.457940
-0.180458 0.069203 0.463050
-0.169357 0.064941 0.467856
-0.158145 0.060638 0.472355
-0.146829 0.056294 0.476545
-0.135416 0.051913 0.480423
-0.123914 0.047498 0.483986
-0.112330 0.043051 0.487232
-0.100673 0.038577 0.490158
-0.088949 0.034077 0.492763
-0.077167 0.029554 0.495045
-0.065334 0.025012 0.497003
-0.053458 0.020453 0.498635
-0.041546 0.015881 0.499941
-0.029608 0.011298 0.500918
-0.017650 0.006708 0.501567
-0.005680 0.002114 0.501888
0.000001 -0.000067 -0.498075
-0.011850 0.004834 -0.497911
-0.023692 0.009732 -0.497417
-0.035520 0.014624 -0.496595
-0.047323 0.019505 -0.495445
-0.059096 0.024374 -0.493968
-0.070830 0.029227 -0.492165
-0.082517 0.034061 -0.490036
-0.094150 0.038872 -0.487584
-0.105721 0.043658 -0.484810
-0.117222 0.048414 -0.481716
-0.128646 0.053139 -0.478303
-0.139986 0.057829 -0.474574
-0.151234 0.062481 -0.470532
-0.162382 0.067091 -0.466179
-0.173423 0.071658 -0.461518
-0.184350 0.076177 -0.456552
-0.195156 0.080646 -0.451285
-0.205833 0.085062 -0.445719
-0.216375 0.089422 -0.439859
-0.226775 0.093723 -0.433708
-0.237025 0.097963 -0.427271
-0.247119 0.102137 -0.420551
-0.257051 0.106245 -0.413553
-0.266814 0.110283 -0.406282
-0.276401 0.114248 -0.398742
-0.285807 0.118138 -0.390938
-0.295024 0.121950 -0.382877
-0.304047 0.125682 -0.374562
-0.312870 0.129331 -0.365999
-0.321487 0.132895 -0.357194
-0.329893 0.136371 -0.348153
-0.338082 0.139758 -0.338881
-0.346048 0.143052 -0.329386
-0.353787 0.146253 -0.319672
-0.361293 0.149357 -0.309747
-0.368561 0.152363 -0.299617
-0.375586 0.155269 -0.289288
-0.382365 0.158072 -0.278767
-0.388892 0.160772 -0.268063
-0.395163 0.163365 -0.257180
-0.401174 0.165851 -0.246127
-0.406921 0.168228 -0.234911
-0.412400 0.170495 -0.223538
-0.417609 0.172649 -0.212018
-0.422542 0.174689 -0.200357
-0.427197 0.176614 -0.188562
-0.431571 0.178423 -0.176643
-0.435662 0.180115 -0.164606
-0.439465 0.181688 -0.152459
-0.442980 0.183142 -0.140211
-0.446203 0.184475 -0.127869
-0.449132 0.185686 -0.115442
-0.451766 0.186776 -0.102937
-0.454103 0.187742 -0.090364
-0.456141 0.188585 -0.077730
-0.457879 0.189304 -0.065043
-0.459316 0.189898 -0.052313
-0.460450 0.190367 -0.039547
-0.461281 0.190711 -0.026753
-0.461809 0.190929 -0.013941
-0.462033 0.191022 -0.001118
-0.461954 0.190989 0.011707
-0.461570 0.190830 0.024526
-0.460882 0.190546 0.037329
-0.459891 0.190136 0.050109
-0.458598 0.189601 0.062858
-0.457003 0.188941 0.075566
-0.455107 0.188157 0.088226
-0.452912 0.187249 0.100830
-0.450419 0.186218 0.113368
-0.447630 0.185065 0.125833
-0.444546 0.183789 0.138216
-0.441169 0.182393 0.150510
-0.437502 0.180876 0.162705
-0.433548 0.179241 0.174796
-0.429308 0.177487 0.186772
-0.424786 0.175617 0.198627
-0.419984 0.173631 0.210352
-0.414906 0.171531 0.221940
-0.409555 0.169318 0.233384
-0.403934 0.166993 0.244675
-0.398048 0.164559 0.255806
-0.391900 0.162016 0.266771
-0.385493 0.159366 0.277561
-0.378834 0.156612 0.288170
-0.371925 0.153755 0.298590
-0.364771 0.150796 0.308815
-0.357378 0.147738 0.318839
-0.349749 0.144583 0.328653
-0.341890 0.141333 0.338253
-0.333806 0.137989 0.347632
-0.325503 0.134555 0.356783
-0.316985 0.131032 0.365701
-0.308259 0.127423 0.374379
-0.299330 0.123731 0.382812
-0.290204 0.119956 0.390995
-0.280887 0.116103 0.398922
-0.271385 0.112173 0.406587
-0.261705 0.108170 0.413987
-0.251853 0.104095 0.421115
-0.241835 0.099952 0.427967
-0.231657 0.095743 0.434539
-0.221328 0.091470 0.440827
-0.210852 0.087138 0.446825
-0.200238 0.082748 0.452531
-0.189493 0.078304 0.457940
-0.178622 0.073808 0.463050
-0.167634 0.069264 0.467856
-0.156536 0.064674 0.472355
-0.145335 0.060041 0.476545
-0.134038 0.055369 0.480423
-0.122653 0.050660 0.483986
-0.111187 0.045918 0.487232
-0.099648 0.041146 0.490158
-0.088044 0.036347 0.492763
-0.076381 0.031523 0.495045
-0.064669 0.026679 0.497003
-0.052914 0.021818 0.498635
-0.041124 0.016941 0.499941
-0.029307 0.012054 0.500918
-0.017470 0.007159 0.501567
-0.005622 0.002259 0.501888
0.000001 -0.000067 -0.498075
-0.011720 0.005137 -0.497911
-0.023433 0.010337 -0.497417
-0.035131 0.015530 -0.496595
-0.046806 0.020713 -0.495445
-0.058450 0.025882 -0.493968
-0.070055 0.031034 -0.492165
-0.081614 0.036166 -0.490036
-0.093120 0.041274 -0.487584
-0.104565 0.046355 -0.484810
-0.115940 0.051405 -0.481716
-0.127239 0.056421 -0.478303
-0.138455 0.061400 -0.474574
-0.149580 0.066339 -0.470532
-0.160606 0.071234 -0.466179
-0.171526 0.076082 -0.461518
-0.182334 0.080880 -0.456552
-0.193021 0.085625 -0.451285
-0.203582 0.090313 -0.445719
-0.214009 0.094942 -0.439859
-0.224294 0.099509 -0.433708
-0.234433 0.104010 -0.427271
-0.244417 0.108442 -0.420551
-0.254240 0.112803 -0.413553
-0.263896 0.117090 -0.406282
-0.273378 0.121299 -0.398742
-0.282681 0.125429 -0.390938
-0.291797 0.129476 -0.382877
-0.300722 0.133439 -0.374562
-0.309448 0.137313 -0.365999
-0.317971 0.141096 -0.357194
-0.326285 0.144787 -0.348153
-0.334384 0.148383 -0.338881
-0.342264 0.151881 -0.329386
-0.349918 0.155279 -0.319672
-0.357341 0.158575 -0.309747
-0.364530 0.161766 -0.299617
-0.371479 0.164851 -0.289288
-0.378183 0.167827 -0.278767
-0.384639 0.170693 -0.268063
-0.390841 0.173447 -0.257180
-0.396786 0.176086 -0.246127
-0.402471 0.178610 -0.234911
-0.407890 0.181016 -0.223538
-0.413041 0.183303 -0.212018
-0.417921 0.185469 -0.200357
-0.422525 0.187513 -0.188562
-0.426851 0.189434 -0.176643
-0.430897 0.191230 -0.164606
-0.434659 0.192900 -0.152459
-0.438135 0.194443 -0.140211
-0.441323 0.195858 -0.127869
-0.444220 0.197145 -0.115442
-0.446826 0.198301 -0.102937
-0.449137 0.199327 -0.090364
-0.451152 0.200222 -0.077730
-0.452871 0.200985 -0.065043
-0.454292 0.201616 -0.052313
-0.455414 0.202114 -0.039547
-0.456236 0.202479 -0.026753
-0.456759 0.202711 -0.013941
-0.456980 0.202809 -0.001118
-0.456901 0.202774 0.011707
-0.456522 0.202606 0.024526
-0.455842 0.202304 0.037329
-0.454862 0.201869 0.050109
-0.453583 0.201301 0.062858
-0.452005 0.200601 0.075566
-0.450130 0.199768 0.088226
-0.447959 0.198804 0.100830
-0.445493 0.197710 0.113368
-0.442734 0.196485 0.125833
-0.439684 0.195131 0.138216
-0.436344 0.193648 0.150510
-0.432718 0.192038 0.162705
-0.428806 0.190301 0.174796
-0.424613 0.188440 0.186772
-0.420140 0.186454 0.198627
-0.415391 0.184346 0.210352
-0.410368 0.182116 0.221940
-0.405075 0.179766 0.233384
-0.399516 0.177298 0.244675
-0.393694 0.174714 0.255806
-0.387613 0.172014 0.266771
-0.381277 0.169201 0.277561
-0.374691 0.166277 0.288170
-0.367857 0.163243 0.298590
-0.360782 0.160102 0.308815
-0.353469 0.156856 0.318839
-0.345924 0.153506 0.328653
-0.338151 0.150055 0.338253
-0.330155 0.146505 0.347632
-0.321943 0.142859 0.356783
-0.313518 0.139119 0.365701
-0.304887 0.135288 0.374379
-0.296056 0.131367 0.382812
-0.287030 0.127360 0.390995
-0.277815 0.123269 0.398922
-0.268417 0.119097 0.406587
-0.258843 0.114846 0.413987
-0.249098 0.110520 0.421115
-0.239190 0.106121 0.427967
-0.229124 0.101653 0.434539
-0.218907 0.097117 0.440827
-0.208546 0.092517 0.446825
-0.198048 0.087857 0.452531
-0.187420 0.083138 0.457940
-0.176669 0.078365 0.463050
-0.165801 0.073541 0.467856
-0.154824 0.068667 0.472355
-0.143745 0.063749 0.476545
-0.132572 0.058789 0.480423
-0.121312 0.053790 0.483986
-0.109971 0.048755 0.487232
-0.098558 0.043688 0.490158
-0.087081 0.038593 0.492763
-0.075546 0.033472 0.495045
-0.063962 0.028329 0.497003
-0.052335 0.023167 0.498635
-0.040674 0.017991 0.499941
-0.028986 0.012802 0.500918
-0.017279 0.007605 0.501567
-0.005561 0.002402 0.501888
0.000001 -0.000067 -0.498075
-0.011583 0.005435 -0.497911
-0.023159 0.010934 -0.497417
-0.034719 0.016426 -0.496595
-0.046257 0.021906 -0.495445
-0.057765 0.027373 -0.493968
-0.069234 0.032821 -0.492165
-0.080658 0.038247 -0.490036
-0.092029 0.043649 -0.487584
-0.103340 0.049021 -0.484810
-0.114582 0.054362 -0.481716
-0.125749 0.059666 -0.478303
-0.136833 0.064931 -0.474574
-0.147827 0.070154 -0.470532
-0.158724 0.075330 -0.466179
-0.169517 0.080457 -0.461518
-0.180198 0.085530 -0.456552
-0.190760 0.090548 -0.451285
-0.201197 0.095505 -0.445719
-0.211501 0.100400 -0.439859
-0.221667 0.105229 -0.433708
-0.231686 0.109988 -0.427271
-0.241553 0.114675 -0.420551
-0.251261 0.119287 -0.413553
-0.260804 0.123820 -0.406282
-0.270176 0.128271 -0.398742
-0.279369 0.132638 -0.390938
-0.288379 0.136918 -0.382877
-0.297199 0.141108 -0.374562
-0.305823 0.145204 -0.365999
-0.314246 0.149205 -0.357194
-0.322463 0.153108 -0.348153
-0.330467 0.156911 -0.338881
-0.338254 0.160609 -0.329386
-0.345818 0.164203 -0.319672
-0.353155 0.167688 -0.309747
-0.360259 0.171062 -0.299617
-0.367127 0.174324 -0.289288
-0.373752 0.177472 -0.278767
-0.380132 0.180502 -0.268063
-0.386262 0.183414 -0.257180
-0.392138 0.186205 -0.246127
-0.397756 0.188874 -0.234911
-0.403112 0.191418 -0.223538
-0.408202 0.193836 -0.212018
-0.413025 0.196127 -0.200357
-0.417575 0.198288 -0.188562
-0.421851 0.200319 -0.176643
-0.425849 0.202218 -0.164606
-0.429567 0.203985 -0.152459
-0.433002 0.205616 -0.140211
-0.436153 0.207113 -0.127869
-0.439016 0.208473 -0.115442
-0.441591 0.209696 -0.102937
-0.443875 0.210781 -0.090364
-0.445867 0.211727 -0.077730
-0.447566 0.212534 -0.065043
-0.448970 0.213201 -0.052313
-0.450079 0.213728 -0.039547
-0.450891 0.214114 -0.026753
-0.451408 0.214359 -0.013941
-0.451627 0.214463 -0.001118
-0.451549 0.214426 0.011707
-0.451173 0.214248 0.024526
-0.450501 0.213929 0.037329
-0.449533 0.213469 0.050109
-0.448269 0.212868 0.062858
-0.446710 0.212128 0.075566
-0.444857 0.211247 0.088226
-0.442711 0.210228 0.100830
-0.440274 0.209071 0.113368
-0.437547 0.207775 0.125833
-0.434533 0.206343 0.138216
-0.431232 0.204776 0.150510
-0.427648 0.203073 0.162705
-0.423783 0.201237 0.174796
-0.419638 0.199268 0.186772
-0.415218 0.197169 0.198627
-0.410524 0.194939 0.210352
-0.405560 0.192581 0.221940
-0.400330 0.190097 0.233384
-0.394836 0.187487 0.244675
-0.389082 0.184754 0.255806
-0.383072 0.181899 0.266771
-0.376811 0.178925 0.277561
-0.370301 0.175832 0.288170
-0.363548 0.172624 0.298590
-0.356555 0.169303 0.308815
-0.349328 0.165870 0.318839
-0.341871 0.162328 0.328653
-0.334189 0.158679 0.338253
-0.326287 0.154925 0.347632
-0.318171 0.151070 0.356783
-0.309845 0.147115 0.365701
-0.301316 0.143063 0.374379
-0.292588 0.138917 0.382812
-0.283667 0.134680 0.390995
-0.274560 0.130354 0.398922
-0.265273 0.125942 0.406587
-0.255810 0.121448 0.413987
-0.246180 0.116873 0.421115
-0.236387 0.112221 0.427967
-0.226439 0.107496 0.434539
-0.216342 0.102700 0.440827
-0.206103 0.097836 0.446825
-0.195728 0.092907 0.452531
-0.185225 0.087918 0.457940
-0.174599 0.082871 0.463050
-0.163858 0.077769 0.467856
-0.153010 0.072616 0.472355
-0.142061 0.067415 0.476545
-0.131019 0.062170 0.480423
-0.119890 0.056883 0.483986
-0.108683 0.051560 0.487232
-0.097404 0.046202 0.490158
-0.086061 0.040814 0.492763
-0.074661 0.035399 0.495045
-0.063212 0.029960 0.497003
-0.051722 0.024502 0.498635
-0.040197 0.019028 0.499941
-0.028646 0.013541 0.500918
-0.017077 0.008045 0.501567
-0.005496 0.002544 0.501888
0.000001 -0.000067 -0.498075
-0.011438 0.005731 -0.497911
-0.022869 0.011525 -0.497417
-0.034285 0.017311 -0.496595
-0.045679 0.023086 -0.495445
-0.057042 0.028845 -0.493968
-0.068368 0.034586 -0.492165
-0.079649 0.040304 -0.490036
-0.090878 0.045995 -0.487584
-0.102047 0.051656 -0.484810
-0.113148 0.057283 -0.481716
-0.124175 0.062872 -0.478303
-0.135121 0.068420 -0.474574
-0.145978 0.073922 -0.470532
-0.156738 0.079376 -0.466179
-0.167396 0.084778 -0.461518
-0.177943 0.090124 -0.456552
-0.188373 0.095410 -0.451285
-0.198679 0.100634 -0.445719
-0.208855 0.105792 -0.439859
-0.218893 0.110879 -0.433708
-0.228787 0.115894 -0.427271
-0.238531 0.120833 -0.420551
-0.248118 0.125692 -0.413553
-0.257541 0.130468 -0.406282
-0.266795 0.135158 -0.398742
-0.275873 0.139760 -0.390938
-0.284770 0.144269 -0.382877
-0.293480 0.148684 -0.374562
-0.301997 0.153000 -0.365999
-0.310314 0.157216 -0.357194
-0.318428 0.161329 -0.348153
-0.326332 0.165335 -0.338881
-0.334021 0.169232 -0.329386
-0.341491 0.173018 -0.319672
-0.348736 0.176690 -0.309747
-0.355752 0.180246 -0.299617
-0.362533 0.183683 -0.289288
-0.369076 0.187000 -0.278767
-0.375376 0.190193 -0.268063
-0.381429 0.193261 -0.257180
-0.387231 0.196202 -0.246127
-0.392779 0.199013 -0.234911
-0.398068 0.201694 -0.223538
-0.403095 0.204242 -0.212018
-0.407857 0.206656 -0.200357
-0.412350 0.208933 -0.188562
-0.416572 0.211073 -0.176643
-0.420521 0.213074 -0.164606
-0.424192 0.214935 -0.152459
-0.427584 0.216654 -0.140211
-0.430695 0.218231 -0.127869
-0.433523 0.219665 -0.115442
-0.436065 0.220953 -0.102937
-0.438321 0.222096 -0.090364
-0.440288 0.223093 -0.077730
-0.441966 0.223944 -0.065043
-0.443352 0.224646 -0.052313
-0.444447 0.225201 -0.039547
-0.445250 0.225608 -0.026753
-0.445759 0.225867 -0.013941
-0.445976 0.225976 -0.001118
-0.445899 0.225937 0.011707
-0.445528 0.225749 0.024526
-0.444865 0.225413 0.037329
-0.443908 0.224928 0.050109
-0.442660 0.224296 0.062858
-0.441120 0.223515 0.075566
-0.439290 0.222588 0.088226
-0.437172 0.221514 0.100830
-0.434765 0.220294 0.113368
-0.432073 0.218929 0.125833
-0.429096 0.217421 0.138216
-0.425837 0.215769 0.150510
-0.422297 0.213975 0.162705
-0.418480 0.212040 0.174796
-0.414388 0.209966 0.186772
-0.410022 0.207753 0.198627
-0.405388 0.205404 0.210352
-0.400486 0.202920 0.221940
-0.395321 0.200302 0.233384
-0.389896 0.197552 0.244675
-0.384214 0.194672 0.255806
-0.378279 0.191664 0.266771
-0.372096 0.188530 0.277561
-0.365668 0.185272 0.288170
-0.358999 0.181892 0.298590
-0.352094 0.178392 0.308815
-0.344957 0.174775 0.318839
-0.337593 0.171043 0.328653
-0.330008 0.167198 0.338253
-0.322205 0.163243 0.347632
-0.314190 0.159181 0.356783
-0.305968 0.155013 0.365701
-0.297545 0.150744 0.374379
-0.288927 0.146376 0.382812
-0.280118 0.141911 0.390995
-0.271125 0.137353 0.398922
-0.261953 0.132705 0.406587
-0.252610 0.127969 0.413987
-0.243100 0.123148 0.421115
-0.233430 0.118247 0.427967
-0.223606 0.113268 0.434539
-0.213636 0.108215 0.440827
-0.203524 0.103090 0.446825
-0.193279 0.097897 0.452531
-0.182907 0.092640 0.457940
-0.172414 0.087322 0.463050
-0.161808 0.081946 0.467856
-0.151096 0.076516 0.472355
-0.140284 0.071036 0.476545
-0.129380 0.065509 0.480423
-0.118390 0.059940 0.483986
-0.107323 0.054330 0.487232
-0.096185 0.048685 0.490158
-0.084984 0.043008 0.492763
-0.073727 0.037302 0.495045
-0.062421 0.031572 0.497003
-0.051075 0.025821 0.498635
-0.039694 0.020053 0.499941
-0.028288 0.014271 0.500918
-0.016863 0.008481 0.501567
-0.005427 0.002684 0.501888
0.000001 -0.000067 -0.498075
-0.011285 0.006022 -0.497911
-0.022564 0.012107 -0.497417
-0.033828 0.018185 -0.496595
-0.045070 0.024250 -0.495445
-0.056282 0.030299 -0.493968
-0.067457 0.036328 -0.492165
-0.078587 0.042333 -0.490036
-0.089666 0.048311 -0.487584
-0.100686 0.054256 -0.484810
-0.111640 0.060166 -0.481716
-0.122520 0.066036 -0.478303
-0.133320 0.071863 -0.474574
-0.144032 0.077642 -0.470532
-0.154649 0.083370 -0.466179
-0.165164 0.089043 -0.461518
-0.175571 0.094658 -0.456552
-0.185862 0.100210 -0.451285
-0.196031 0.105697 -0.445719
-0.206071 0.111114 -0.439859
-0.215976 0.116457 -0.433708
-0.225738 0.121724 -0.427271
-0.235352 0.126911 -0.420551
-0.244811 0.132014 -0.413553
-0.254108 0.137031 -0.406282
-0.263239 0.141957 -0.398742
-0.272196 0.146790 -0.390938
-0.280975 0.151526 -0.382877
-0.289568 0.156162 -0.374562
-0.297971 0.160696 -0.365999
-0.306178 0.165124 -0.357194
-0.314184 0.169443 -0.348153
-0.321982 0.173650 -0.338881
-0.329569 0.177744 -0.329386
-0.336939 0.181720 -0.319672
-0.344088 0.185577 -0.309747
-0.351010 0.189311 -0.299617
-0.357701 0.192921 -0.289288
-0.364157 0.196404 -0.278767
-0.370373 0.199758 -0.268063
-0.376345 0.202980 -0.257180
-0.382070 0.206069 -0.246127
-0.387544 0.209022 -0.234911
-0.392762 0.211837 -0.223538
-0.397722 0.214513 -0.212018
-0.402420 0.217048 -0.200357
-0.406854 0.219440 -0.188562
-0.411020 0.221688 -0.176643
-0.414916 0.223790 -0.164606
-0.418538 0.225744 -0.152459
-0.421885 0.227550 -0.140211
-0.424955 0.229206 -0.127869
-0.427745 0.230711 -0.115442
-0.430253 0.232065 -0.102937
-0.432479 0.233265 -0.090364
-0.434420 0.234313 -0.077730
-0.436075 0.235206 -0.065043
-0.437443 0.235944 -0.052313
-0.438523 0.236527 -0.039547
-0.439315 0.236954 -0.026753
-0.439818 0.237225 -0.013941
-0.440031 0.237340 -0.001118
-0.439955 0.237299 0.011707
-0.439590 0.237102 0.024526
-0.438935 0.236749 0.037329
-0.437991 0.236240 0.050109
-0.436760 0.235575 0.062858
-0.435241 0.234756 0.075566
-0.433435 0.233781 0.088226
-0.431345 0.232654 0.100830
-0.428970 0.231373 0.113368
-0.426314 0.229939 0.125833
-0.423376 0.228355 0.138216
-0.420161 0.226620 0.150510
-0.416669 0.224735 0.162705
-0.412902 0.222703 0.174796
-0.408864 0.220525 0.186772
-0.404557 0.218201 0.198627
-0.399984 0.215734 0.210352
-0.395148 0.213125 0.221940
-0.390052 0.210375 0.233384
-0.384699 0.207487 0.244675
-0.379093 0.204462 0.255806
-0.373237 0.201303 0.266771
-0.367136 0.198012 0.277561
-0.360794 0.194590 0.288170
-0.354214 0.191040 0.298590
-0.347401 0.187364 0.308815
-0.340359 0.183565 0.318839
-0.333094 0.179645 0.328653
-0.325609 0.175607 0.338253
-0.317910 0.171453 0.347632
-0.310002 0.167187 0.356783
-0.301890 0.162810 0.365701
-0.293579 0.158326 0.374379
-0.285076 0.153738 0.382812
-0.276384 0.149049 0.390995
-0.267511 0.144262 0.398922
-0.258462 0.139380 0.406587
-0.249243 0.134406 0.413987
-0.239859 0.129343 0.421115
-0.230318 0.124195 0.427967
-0.220626 0.118966 0.434539
-0.210788 0.113658 0.440827
-0.200812 0.108276 0.446825
-0.190703 0.102822 0.452531
-0.180469 0.097301 0.457940
-0.170116 0.091715 0.463050
-0.159652 0.086069 0.467856
-0.149082 0.080366 0.472355
-0.138414 0.074611 0.476545
-0.127655 0.068806 0.480423
-0.116812 0.062956 0.483986
-0.105892 0.057065 0.487232
-0.094903 0.051136 0.490158
-0.083851 0.045173 0.492763
-0.072744 0.039181 0.495045
-0.061589 0.033162 0.497003
-0.050394 0.027122 0.498635
-0.039165 0.021064 0.499941
-0.027911 0.014992 0.500918
-0.016638 0.008910 0.501567
-0.005355 0.002822 0.501888
0.000001 -0.000067 -0.498075
-0.011125 0.006310 -0.497911
-0.022244 0.012682 -0.497417
-0.033349 0.019046 -0.496595
-0.044431 0.025398 -0.495445
-0.055484 0.031732 -0.493968
-0.066501 0.038046 -0.492165
-0.077474 0.044335 -0.490036
-0.088396 0.050594 -0.487584
-0.099260 0.056821 -0.484810
-0.110058 0.063009 -0.481716
-0.120785 0.069157 -0.478303
-0.131431 0.075258 -0.474574
-0.141991 0.081311 -0.470532
-0.152458 0.087309 -0.466179
-0.162825 0.093250 -0.461518
-0.173084 0.099130 -0.456552
-0.183229 0.104944 -0.451285
-0.193254 0.110690 -0.445719
-0.203152 0.116362 -0.439859
-0.212916 0.121958 -0.433708
-0.222540 0.127474 -0.427271
-0.232017 0.132906 -0.420551
-0.241342 0.138250 -0.413553
-0.250508 0.143503 -0.406282
-0.259510 0.148662 -0.398742
-0.268340 0.153723 -0.390938
-0.276994 0.158682 -0.382877
-0.285466 0.163538 -0.374562
-0.293750 0.168285 -0.365999
-0.301841 0.172922 -0.357194
-0.309733 0.177445 -0.348153
-0.317421 0.181851 -0.338881
-0.324900 0.186138 -0.329386
-0.332166 0.190302 -0.319672
-0.339213 0.194341 -0.309747
-0.346037 0.198252 -0.299617
-0.352633 0.202032 -0.289288
-0.358998 0.205680 -0.278767
-0.365126 0.209192 -0.268063
-0.371014 0.212566 -0.257180
-0.376657 0.215800 -0.246127
-0.382053 0.218893 -0.234911
-0.387198 0.221841 -0.223538
-0.392088 0.224644 -0.212018
-0.396719 0.227298 -0.200357
-0.401090 0.229803 -0.188562
-0.405197 0.232157 -0.176643
-0.409037 0.234358 -0.164606
-0.412609 0.236405 -0.152459
-0.415908 0.238296 -0.140211
-0.418935 0.240030 -0.127869
-0.421685 0.241606 -0.115442
-0.424158 0.243024 -0.102937
-0.426352 0.244281 -0.090364
-0.428265 0.245378 -0.077730
-0.429897 0.246313 -0.065043
-0.431246 0.247086 -0.052313
-0.432311 0.247696 -0.039547
-0.433091 0.248144 -0.026753
-0.433587 0.248428 -0.013941
-0.433798 0.248548 -0.001118
-0.433723 0.248505 0.011707
-0.433362 0.248299 0.024526
-0.432717 0.247929 0.037329
-0.431787 0.247396 0.050109
-0.430572 0.246700 0.062858
-0.429075 0.245841 0.075566
-0.427295 0.244821 0.088226
-0.425234 0.243640 0.100830
-0.422893 0.242299 0.113368
-0.420274 0.240798 0.125833
-0.417378 0.239138 0.138216
-0.414208 0.237321 0.150510
-0.410766 0.235348 0.162705
-0.407053 0.233220 0.174796
-0.403072 0.230939 0.186772
-0.398826 0.228506 0.198627
-0.394318 0.225922 0.210352
-0.389550 0.223189 0.221940
-0.384526 0.220310 0.233384
-0.379249 0.217286 0.244675
-0.373722 0.214118 0.255806
-0.367950 0.210810 0.266771
-0.361935 0.207363 0.277561
-0.355682 0.203779 0.288170
-0.349196 0.200062 0.298590
-0.342479 0.196213 0.308815
-0.335537 0.192234 0.318839
-0.328375 0.188129 0.328653
-0.320996 0.183900 0.338253
-0.313406 0.179551 0.347632
-0.305610 0.175083 0.356783
-0.297613 0.170499 0.365701
-0.289420 0.165804 0.374379
-0.281037 0.160999 0.382812
-0.272469 0.156089 0.390995
-0.263721 0.151075 0.398922
-0.254800 0.145963 0.406587
-0.245712 0.140754 0.413987
-0.236461 0.135452 0.421115
-0.227055 0.130062 0.427967
-0.217500 0.124586 0.434539
-0.207802 0.119027 0.440827
-0.197967 0.113391 0.446825
-0.188001 0.107679 0.452531
-0.177912 0.101897 0.457940
-0.167706 0.096048 0.463050
-0.157390 0.090136 0.467856
-0.146970 0.084164 0.472355
-0.136453 0.078136 0.476545
-0.125847 0.072058 0.480423
-0.115157 0.065932 0.483986
-0.104392 0.059762 0.487232
-0.093559 0.053553 0.490158
-0.082663 0.047309 0.492763
-0.071714 0.041034 0.495045
-0.060717 0.034731 0.497003
-0.049680 0.028406 0.498635
-0.038610 0.022062 0.499941
-0.027516 0.015703 0.500918
-0.016403 0.009334 0.501567
-0.005279 0.002959 0.501888
0.000001 -0.000067 -0.498075
-0.010958 0.006593 -0.497911
-0.021910 0.013248 -0.497417
-0.032848 0.019895 -0.496595
-0.043763 0.026529 -0.495445
-0.054651 0.033145 -0.493968
-0.065502 0.039739 -0.492165
-0.076310 0.046307 -0.490036
-0.087068 0.052845 -0.487584
-0.097768 0.059348 -0.484810
-0.108404 0.065811 -0.481716
-0.118969 0.072232 -0.478303
-0.129456 0.078605 -0.474574
-0.139857 0.084926 -0.470532
-0.150167 0.091191 -0.466179
-0.160378 0.097396 -0.461518
-0.170483 0.103537 -0.456552
-0.180476 0.109609 -0.451285
-0.190350 0.115610 -0.445719
-0.200099 0.121535 -0.439859
-0.209716 0.127379 -0.433708
-0.219195 0.133140 -0.427271
-0.228531 0.138813 -0.420551
-0.237715 0.144394 -0.413553
-0.246744 0.149881 -0.406282
-0.255610 0.155269 -0.398742
-0.264308 0.160555 -0.390938
-0.272832 0.165735 -0.382877
-0.281176 0.170806 -0.374562
-0.289335 0.175764 -0.365999
-0.297304 0.180607 -0.357194
-0.305078 0.185331 -0.348153
-0.312651 0.189933 -0.338881
-0.320018 0.194410 -0.329386
-0.327174 0.198759 -0.319672
-0.334115 0.202977 -0.309747
-0.340837 0.207062 -0.299617
-0.347334 0.211010 -0.289288
-0.353603 0.214820 -0.278767
-0.359639 0.218488 -0.268063
-0.365438 0.222012 -0.257180
-0.370997 0.225390 -0.246127
-0.376312 0.228620 -0.234911
-0.381379 0.231699 -0.223538
-0.386195 0.234626 -0.212018
-0.390757 0.237399 -0.200357
-0.395063 0.240015 -0.188562
-0.399108 0.242473 -0.176643
-0.402890 0.244772 -0.164606
-0.406408 0.246910 -0.152459
-0.409658 0.248885 -0.140211
-0.412639 0.250696 -0.127869
-0.415348 0.252342 -0.115442
-0.417784 0.253823 -0.102937
-0.419945 0.255136 -0.090364
-0.421829 0.256281 -0.077730
-0.423436 0.257258 -0.065043
-0.424765 0.258065 -0.052313
-0.425814 0.258703 -0.039547
-0.426583 0.259170 -0.026753
-0.427071 0.259467 -0.013941
-0.427278 0.259593 -0.001118
-0.427204 0.259548 0.011707
-0.426850 0.259332 0.024526
-0.426214 0.258946 0.037329
-0.425298 0.258389 0.050109
-0.424102 0.257662 0.062858
-0.422626 0.256766 0.075566
-0.420873 0.255700 0.088226
-0.418843 0.254467 0.100830
-0.416538 0.253065 0.113368
-0.413958 0.251498 0.125833
-0.411106 0.249765 0.138216
-0.407983 0.247867 0.150510
-0.404593 0.245806 0.162705
-0.400935 0.243584 0.174796
-0.397015 0.241201 0.186772
-0.392832 0.238660 0.198627
-0.388392 0.235961 0.210352
-0.383696 0.233107 0.221940
-0.378747 0.230100 0.233384
-0.373549 0.226941 0.244675
-0.368106 0.223633 0.255806
-0.362420 0.220178 0.266771
-0.356496 0.216578 0.277561
-0.350337 0.212835 0.288170
-0.343948 0.208952 0.298590
-0.337332 0.204932 0.308815
-0.330495 0.200777 0.318839
-0.323440 0.196490 0.328653
-0.316172 0.192073 0.338253
-0.308696 0.187530 0.347632
-0.301018 0.182863 0.356783
-0.293141 0.178077 0.365701
-0.285071 0.173172 0.374379
-0.276814 0.168154 0.382812
-0.268374 0.163026 0.390995
-0.259758 0.157790 0.398922
-0.250971 0.152450 0.406587
-0.242019 0.147010 0.413987
-0.232908 0.141473 0.421115
-0.223643 0.135843 0.427967
-0.214232 0.130123 0.434539
-0.204679 0.124318 0.440827
-0.194992 0.118431 0.446825
-0.185176 0.112466 0.452531
-0.175239 0.106427 0.457940
-0.165186 0.100318 0.463050
-0.155024 0.094143 0.467856
-0.144761 0.087906 0.472355
-0.134402 0.081611 0.476545
-0.123955 0.075262 0.480423
-0.113427 0.068864 0.483986
-0.102823 0.062420 0.487232
-0.092153 0.055935 0.490158
-0.081421 0.049413 0.492763
-0.070636 0.042859 0.495045
-0.059804 0.036277 0.497003
-0.048933 0.029671 0.498635
-0.038030 0.023045 0.499941
-0.027102 0.016404 0.500918
-0.016156 0.009752 0.501567
-0.005199 0.003093 0.501888
0.000001 -0.000067 -0.498075
-0.010784 0.006872 -0.497911
-0.021561 0.013806 -0.497417
-0.032325 0.020731 -0.496595
-0.043067 0.027643 -0.495445
-0.053781 0.034536 -0.493968
-0.064459 0.041406 -0.492165
-0.075095 0.048249 -0.490036
-0.085682 0.055061 -0.487584
-0.096212 0.061836 -0.484810
-0.106679 0.068570 -0.481716
-0.117076 0.075259 -0.478303
-0.127396 0.081899 -0.474574
-0.137632 0.088485 -0.470532
-0.147777 0.095012 -0.466179
-0.157825 0.101477 -0.461518
-0.167769 0.107875 -0.456552
-0.177603 0.114202 -0.451285
-0.187320 0.120454 -0.445719
-0.196914 0.126627 -0.439859
-0.206378 0.132716 -0.433708
-0.215707 0.138718 -0.427271
-0.224893 0.144628 -0.420551
-0.233932 0.150444 -0.413553
-0.242817 0.156160 -0.406282
-0.251542 0.161774 -0.398742
-0.260101 0.167281 -0.390938
-0.268489 0.172678 -0.382877
-0.276701 0.177961 -0.374562
-0.284730 0.183127 -0.365999
-0.292573 0.188173 -0.357194
-0.300222 0.193095 -0.348153
-0.307675 0.197889 -0.338881
-0.314924 0.202554 -0.329386
-0.321967 0.207085 -0.319672
-0.328798 0.211480 -0.309747
-0.335412 0.215735 -0.299617
-0.341806 0.219849 -0.289288
-0.347975 0.223818 -0.278767
-0.353915 0.227640 -0.268063
-0.359622 0.231312 -0.257180
-0.365092 0.234831 -0.246127
-0.370322 0.238196 -0.234911
-0.375309 0.241405 -0.223538
-0.380049 0.244454 -0.212018
-0.384538 0.247343 -0.200357
-0.388775 0.250069 -0.188562
-0.392756 0.252630 -0.176643
-0.396478 0.255025 -0.164606
-0.399940 0.257252 -0.152459
-0.403138 0.259310 -0.140211
-0.406071 0.261197 -0.127869
-0.408737 0.262912 -0.115442
-0.411134 0.264454 -0.102937
-0.413261 0.265823 -0.090364
-0.415116 0.267016 -0.077730
-0.416697 0.268034 -0.065043
-0.418005 0.268875 -0.052313
-0.419037 0.269539 -0.039547
-0.419794 0.270026 -0.026753
-0.420274 0.270335 -0.013941
-0.420478 0.270466 -0.001118
-0.420405 0.270419 0.011707
-0.420056 0.270195 0.024526
-0.419430 0.269792 0.037329
-0.418529 0.269212 0.050109
-0.417352 0.268455 0.062858
-0.415900 0.267521 0.075566
-0.414175 0.266411 0.088226
-0.412177 0.265125 0.100830
-0.409908 0.263666 0.113368
-0.407370 0.262032 0.125833
-0.404563 0.260227 0.138216
-0.401490 0.258250 0.150510
-0.398153 0.256103 0.162705
-0.394554 0.253787 0.174796
-0.390696 0.251304 0.186772
-0.386580 0.248657 0.198627
-0.382210 0.245845 0.210352
-0.377589 0.242872 0.221940
-0.372719 0.239738 0.233384
-0.367604 0.236447 0.244675
-0.362247 0.233001 0.255806
-0.356652 0.229401 0.266771
-0.350822 0.225650 0.277561
-0.344761 0.221751 0.288170
-0.338474 0.217705 0.298590
-0.331964 0.213517 0.308815
-0.325235 0.209187 0.318839
-0.318292 0.204721 0.328653
-0.311140 0.200119 0.338253
-0.303783 0.195386 0.347632
-0.296227 0.190524 0.356783
-0.288475 0.185536 0.365701
-0.280534 0.180427 0.374379
-0.272408 0.175199 0.382812
-0.264103 0.169855 0.390995
-0.255624 0.164400 0.398922
-0.246977 0.158837 0.406587
-0.238167 0.153169 0.413987
-0.229201 0.147400 0.421115
-0.220084 0.141534 0.427967
-0.210822 0.135575 0.434539
-0.201421 0.129527 0.440827
-0.191888 0.123393 0.446825
-0.182229 0.117178 0.452531
-0.172450 0.110886 0.457940
-0.162557 0.104522 0.463050
-0.152557 0.098088 0.467856
-0.142457 0.091589 0.472355
-0.132263 0.085031 0.476545
-0.121982 0.078416 0.480423
-0.111621 0.071750 0.483986
-0.101187 0.065037 0.487232
-0.090686 0.058280 0.490158
-0.080125 0.051486 0.492763
-0.069512 0.044657 0.495045
-0.058852 0.037799 0.497003
-0.048155 0.030916 0.498635
-0.037425 0.024013 0.499941
-0.026671 0.017093 0.500918
-0.015899 0.010163 0.501567
-0.005117 0.003226 0.501888
0.000001 -0.000067 -0.498075
-0.010602 0.007146 -0.497911
-0.021198 0.014355 -0.497417
-0.031781 0.021553 -0.496595
-0.042342 0.028738 -0.495445
-0.052876 0.035904 -0.493968
-0.063374 0.043046 -0.492165
-0.073831 0.050160 -0.490036
-0.084240 0.057240 -0.487584
-0.094593 0.064283 -0.484810
-0.104884 0.071284 -0.481716
-0.115105 0.078237 -0.478303
-0.125251 0.085140 -0.474574
-0.135315 0.091986 -0.470532
-0.145290 0.098771 -0.466179
-0.155169 0.105492 -0.461518
-0.164946 0.112143 -0.456552
-0.174614 0.118720 -0.451285
-0.184168 0.125219 -0.445719
-0.193600 0.131636 -0.439859
-0.202905 0.137966 -0.433708
-0.212076 0.144205 -0.427271
-0.221108 0.150349 -0.420551
-0.229995 0.156394 -0.413553
-0.238730 0.162337 -0.406282
-0.247308 0.168172 -0.398742
-0.255723 0.173897 -0.390938
-0.263970 0.179507 -0.382877
-0.272044 0.184999 -0.374562
-0.279938 0.190370 -0.365999
-0.287648 0.195615 -0.357194
-0.295169 0.200731 -0.348153
-0.302496 0.205715 -0.338881
-0.309624 0.210564 -0.329386
-0.316548 0.215275 -0.319672
-0.323264 0.219843 -0.309747
-0.329767 0.224267 -0.299617
-0.336053 0.228543 -0.289288
-0.342118 0.232669 -0.278767
-0.347958 0.236642 -0.268063
-0.353569 0.240459 -0.257180
-0.358947 0.244118 -0.246127
-0.364090 0.247616 -0.234911
-0.368992 0.250951 -0.223538
-0.373652 0.254121 -0.212018
-0.378066 0.257124 -0.200357
-0.382232 0.259958 -0.188562
-0.386145 0.262620 -0.176643
-0.389805 0.265110 -0.164606
-0.393208 0.267425 -0.152459
-0.396353 0.269564 -0.140211
-0.399237 0.271526 -0.127869
-0.401858 0.273309 -0.115442
-0.404215 0.274912 -0.102937
-0.406305 0.276335 -0.090364
-0.408129 0.277575 -0.077730
-0.409684 0.278633 -0.065043
-0.410969 0.279507 -0.052313
-0.411984 0.280198 -0.039547
-0.412728 0.280704 -0.026753
-0.413200 0.281025 -0.013941
-0.413401 0.281162 -0.001118
-0.413330 0.281113 0.011707
-0.412986 0.280879 0.024526
-0.412371 0.280461 0.037329
-0.411485 0.279858 0.050109
-0.410327 0.279071 0.062858
-0.408900 0.278100 0.075566
-0.407204 0.276946 0.088226
-0.405240 0.275610 0.100830
-0.403009 0.274092 0.113368
-0.400513 0.272394 0.125833
-0.397754 0.270517 0.138216
-0.394733 0.268462 0.150510
-0.391452 0.266230 0.162705
-0.387914 0.263823 0.174796
-0.384120 0.261242 0.186772
-0.380074 0.258490 0.198627
-0.375777 0.255567 0.210352
-0.371234 0.252476 0.221940
-0.366446 0.249219 0.233384
-0.361417 0.245798 0.244675
-0.356150 0.242215 0.255806
-0.350649 0.238473 0.266771
-0.344917 0.234574 0.277561
-0.338959 0.230520 0.288170
-0.332777 0.226315 0.298590
-0.326376 0.221961 0.308815
-0.319761 0.217460 0.318839
-0.312935 0.212817 0.328653
-0.305903 0.208033 0.338253
-0.298670 0.203113 0.347632
-0.291241 0.198059 0.356783
-0.283620 0.192874 0.365701
-0.275812 0.187563 0.374379
-0.267823 0.182128 0.382812
-0.259658 0.176573 0.390995
-0.251322 0.170902 0.398922
-0.242820 0.165119 0.406587
-0.234159 0.159227 0.413987
-0.225343 0.153230 0.421115
-0.216380 0.147132 0.427967
-0.207274 0.140938 0.434539
-0.198031 0.134650 0.440827
-0.188659 0.128274 0.446825
-0.179162 0.121814 0.452531
-0.169547 0.115273 0.457940
-0.159821 0.108656 0.463050
-0.149989 0.101968 0.467856
-0.140059 0.095213 0.472355
-0.130037 0.088395 0.476545
-0.119929 0.081519 0.480423
-0.109743 0.074589 0.483986
-0.099484 0.067610 0.487232
-0.089160 0.060587 0.490158
-0.078777 0.053524 0.492763
-0.068342 0.046425 0.495045
-0.057862 0.039296 0.497003
-0.047344 0.032141 0.498635
-0.036795 0.024965 0.499941
-0.026222 0.017772 0.500918
-0.015631 0.010567 0.501567
-0.005031 0.003356 0.501888
0.000001 -0.000067 -0.498075
-0.010414 0.007416 -0.497911
-0.020822 0.014894 -0.497417
-0.031216 0.022361 -0.496595
-0.041589 0.029815 -0.495445
-0.051936 0.037248 -0.493968
-0.062248 0.044657 -0.492165
-0.072519 0.052037 -0.490036
-0.082742 0.059382 -0.487584
-0.092911 0.066688 -0.484810
-0.103019 0.073950 -0.481716
-0.113059 0.081164 -0.478303
-0.123025 0.088324 -0.474574
-0.132910 0.095426 -0.470532
-0.142707 0.102465 -0.466179
-0.152410 0.109437 -0.461518
-0.162013 0.116336 -0.456552
-0.171510 0.123159 -0.451285
-0.180894 0.129901 -0.445719
-0.190158 0.136558 -0.439859
-0.199298 0.143124 -0.433708
-0.208306 0.149597 -0.427271
-0.217178 0.155971 -0.420551
-0.225906 0.162242 -0.413553
-0.234486 0.168406 -0.406282
-0.242912 0.174460 -0.398742
-0.251177 0.180398 -0.390938
-0.259278 0.186218 -0.382877
-0.267208 0.191916 -0.374562
-0.274962 0.197487 -0.365999
-0.282535 0.202928 -0.357194
-0.289922 0.208236 -0.348153
-0.297119 0.213406 -0.338881
-0.304120 0.218436 -0.329386
-0.310921 0.223323 -0.319672
-0.317517 0.228062 -0.309747
-0.323905 0.232651 -0.299617
-0.330079 0.237087 -0.289288
-0.336036 0.241368 -0.278767
-0.341772 0.245489 -0.268063
-0.347284 0.249449 -0.257180
-0.352566 0.253244 -0.246127
-0.357617 0.256873 -0.234911
-0.362433 0.260333 -0.223538
-0.367010 0.263621 -0.212018
-0.371345 0.266736 -0.200357
-0.375437 0.269676 -0.188562
-0.379281 0.272438 -0.176643
-0.382876 0.275020 -0.164606
-0.386218 0.277422 -0.152459
-0.389307 0.279641 -0.140211
-0.392140 0.281676 -0.127869
-0.394714 0.283526 -0.115442
-0.397029 0.285189 -0.102937
-0.399083 0.286665 -0.090364
-0.400874 0.287952 -0.077730
-0.402401 0.289049 -0.065043
-0.403663 0.289956 -0.052313
-0.404660 0.290672 -0.039547
-0.405391 0.291197 -0.026753
-0.405855 0.291531 -0.013941
-0.406052 0.291672 -0.001118
-0.405982 0.291622 0.011707
-0.405644 0.291379 0.024526
-0.405040 0.290945 0.037329
-0.404170 0.290320 0.050109
-0.403033 0.289503 0.062858
-0.401631 0.288496 0.075566
-0.399965 0.287299 0.088226
-0.398036 0.285913 0.100830
-0.395845 0.284339 0.113368
-0.393393 0.282577 0.125833
-0.390683 0.280630 0.138216
-0.387716 0.278498 0.150510
-0.384493 0.276183 0.162705
-0.381018 0.273686 0.174796
-0.377292 0.271008 0.186772
-0.373317 0.268153 0.198627
-0.369097 0.265121 0.210352
-0.364634 0.261915 0.221940
-0.359932 0.258536 0.233384
-0.354992 0.254987 0.244675
-0.349819 0.251270 0.255806
-0.344416 0.247388 0.266771
-0.338786 0.243343 0.277561
-0.332933 0.239138 0.288170
-0.326861 0.234775 0.298590
-0.320574 0.230259 0.308815
-0.314076 0.225590 0.318839
-0.307372 0.220773 0.328653
-0.300465 0.215811 0.338253
-0.293361 0.210706 0.347632
-0.286064 0.205463 0.356783
-0.278578 0.200085 0.365701
-0.270909 0.194575 0.374379
-0.263062 0.188937 0.382812
-0.255042 0.183175 0.390995
-0.246854 0.177292 0.398922
-0.238503 0.171293 0.406587
-0.229996 0.165180 0.413987
-0.221337 0.158959 0.421115
-0.212533 0.152633 0.427967
-0.203589 0.146207 0.434539
-0.194511 0.139685 0.440827
-0.185305 0.133071 0.446825
-0.175977 0.126369 0.452531
-0.166533 0.119584 0.457940
-0.156980 0.112720 0.463050
-0.147323 0.105782 0.467856
-0.137570 0.098774 0.472355
-0.127726 0.091701 0.476545
-0.117797 0.084568 0.480423
-0.107792 0.077380 0.483986
-0.097715 0.070140 0.487232
-0.087575 0.062854 0.490158
-0.077376 0.055527 0.492763
-0.067127 0.048163 0.495045
-0.056833 0.040767 0.497003
-0.046502 0.033345 0.498635
-0.036141 0.025900 0.499941
-0.025756 0.018438 0.500918
-0.015353 0.010965 0.501567
-0.004941 0.003484 0.501888
0.000001 -0.000067 -0.498075
-0.010218 0.007680 -0.497911
-0.020431 0.015423 -0.497417
-0.030630 0.023155 -0.496595
-0.040809 0.030872 -0.495445
-0.050961 0.038568 -0.493968
-0.061080 0.046239 -0.492165
-0.071159 0.053880 -0.490036
-0.081190 0.061485 -0.487584
-0.091169 0.069049 -0.484810
-0.101087 0.076568 -0.481716
-0.110939 0.084037 -0.478303
-0.120717 0.091450 -0.474574
-0.130417 0.098803 -0.470532
-0.140030 0.106092 -0.466179
-0.149552 0.113310 -0.461518
-0.158975 0.120453 -0.456552
-0.168293 0.127518 -0.451285
-0.177501 0.134498 -0.445719
-0.186592 0.141390 -0.439859
-0.195560 0.148189 -0.433708
-0.204399 0.154890 -0.427271
-0.213104 0.161489 -0.420551
-0.221669 0.167982 -0.413553
-0.230088 0.174365 -0.406282
-0.238355 0.180633 -0.398742
-0.246466 0.186781 -0.390938
-0.254415 0.192807 -0.382877
-0.262196 0.198706 -0.374562
-0.269804 0.204474 -0.365999
-0.277236 0.210108 -0.357194
-0.284484 0.215603 -0.348153
-0.291546 0.220957 -0.338881
-0.298416 0.226165 -0.329386
-0.305089 0.231224 -0.319672
-0.311562 0.236131 -0.309747
-0.317829 0.240882 -0.299617
-0.323888 0.245475 -0.289288
-0.329733 0.249907 -0.278767
-0.335362 0.254174 -0.268063
-0.340770 0.258274 -0.257180
-0.345953 0.262203 -0.246127
-0.350910 0.265961 -0.234911
-0.355635 0.269543 -0.223538
-0.360126 0.272948 -0.212018
-0.364380 0.276173 -0.200357
-0.368395 0.279216 -0.188562
-0.372167 0.282076 -0.176643
-0.375694 0.284750 -0.164606
-0.378974 0.287237 -0.152459
-0.382005 0.289534 -0.140211
-0.384784 0.291641 -0.127869
-0.387311 0.293557 -0.115442
-0.389582 0.295279 -0.102937
-0.391597 0.296806 -0.090364
-0.393355 0.298138 -0.077730
-0.394853 0.299275 -0.065043
-0.396092 0.300214 -0.052313
-0.397070 0.300955 -0.039547
-0.397787 0.301499 -0.026753
-0.398243 0.301844 -0.013941
-0.398436 0.301991 -0.001118
-0.398367 0.301938 0.011707
-0.398036 0.301688 0.024526
-0.397443 0.301238 0.037329
-0.396589 0.300590 0.050109
-0.395473 0.299745 0.062858
-0.394098 0.298702 0.075566
-0.392463 0.297463 0.088226
-0.390570 0.296028 0.100830
-0.388420 0.294398 0.113368
-0.386015 0.292574 0.125833
-0.383355 0.290558 0.138216
-0.380443 0.288351 0.150510
-0.377281 0.285953 0.162705
-0.373871 0.283368 0.174796
-0.370215 0.280596 0.186772
-0.366315 0.277640 0.198627
-0.362174 0.274501 0.210352
-0.357795 0.271181 0.221940
-0.353181 0.267682 0.233384
-0.348334 0.264008 0.244675
-0.343258 0.260160 0.255806
-0.337956 0.256140 0.266771
-0.332431 0.251952 0.277561
-0.326688 0.247598 0.288170
-0.320730 0.243082 0.298590
-0.314561 0.238405 0.308815
-0.308185 0.233571 0.318839
-0.301607 0.228584 0.328653
-0.294830 0.223446 0.338253
-0.287859 0.218161 0.347632
-0.280698 0.212733 0.356783
-0.273353 0.207164 0.365701
-0.265828 0.201460 0.374379
-0.258128 0.195622 0.382812
-0.250258 0.189656 0.390995
-0.242224 0.183565 0.398922
-0.234030 0.177353 0.406587
-0.225682 0.171025 0.413987
-0.217186 0.164584 0.421115
-0.208547 0.158034 0.427967
-0.199770 0.151381 0.434539
-0.190862 0.144628 0.440827
-0.181829 0.137780 0.446825
-0.172676 0.130841 0.452531
-0.163409 0.123816 0.457940
-0.154035 0.116709 0.463050
-0.144560 0.109526 0.467856
-0.134989 0.102270 0.472355
-0.125330 0.094947 0.476545
-0.115588 0.087562 0.480423
-0.105770 0.080119 0.483986
-0.095882 0.072623 0.487232
-0.085932 0.065079 0.490158
-0.075925 0.057493 0.492763
-0.065868 0.049868 0.495045
-0.055767 0.042211 0.497003
-0.045630 0.034526 0.498635
-0.035463 0.026818 0.499941
-0.025272 0.019093 0.500918
-0.015065 0.011355 0.501567
-0.004848 0.003609 0.501888
0.000001 -0.000067 -0.498075
-0.010016 0.007940 -0.497911
-0.020027 0.015942 -0.497417
-0.030025 0.023933 -0.496595
-0.040002 0.031908 -0.495445
-0.049954 0.039862 -0.493968
-0.059872 0.047790 -0.492165
-0.069752 0.055687 -0.490036
-0.079585 0.063547 -0.487584
-0.089366 0.071365 -0.484810
-0.099088 0.079136 -0.481716
-0.108745 0.086855 -0.478303
-0.118330 0.094516 -0.474574
-0.127838 0.102116 -0.470532
-0.137261 0.109648 -0.466179
-0.146594 0.117108 -0.461518
-0.155831 0.124491 -0.456552
-0.164965 0.131792 -0.451285
-0.173991 0.139007 -0.445719
-0.182902 0.146129 -0.439859
-0.191693 0.153156 -0.433708
-0.200358 0.160082 -0.427271
-0.208890 0.166902 -0.420551
-0.217286 0.173613 -0.413553
-0.225538 0.180209 -0.406282
-0.233642 0.186687 -0.398742
-0.241593 0.193041 -0.390938
-0.249384 0.199269 -0.382877
-0.257011 0.205366 -0.374562
-0.264470 0.211327 -0.365999
-0.271754 0.217149 -0.357194
-0.278859 0.222829 -0.348153
-0.285781 0.228362 -0.338881
-0.292515 0.233744 -0.329386
-0.299056 0.238973 -0.319672
-0.305401 0.244044 -0.309747
-0.311545 0.248955 -0.299617
-0.317484 0.253702 -0.289288
-0.323214 0.258282 -0.278767
-0.328731 0.262692 -0.268063
-0.334032 0.266929 -0.257180
-0.339113 0.270990 -0.246127
-0.343971 0.274873 -0.234911
-0.348603 0.278576 -0.223538
-0.353005 0.282094 -0.212018
-0.357175 0.285428 -0.200357
-0.361110 0.288573 -0.188562
-0.364808 0.291529 -0.176643
-0.368265 0.294292 -0.164606
-0.371481 0.296862 -0.152459
-0.374452 0.299237 -0.140211
-0.377176 0.301414 -0.127869
-0.379652 0.303394 -0.115442
-0.381879 0.305173 -0.102937
-0.383854 0.306752 -0.090364
-0.385577 0.308129 -0.077730
-0.387046 0.309303 -0.065043
-0.388260 0.310274 -0.052313
-0.389219 0.311041 -0.039547
-0.389922 0.311602 -0.026753
-0.390368 0.311959 -0.013941
-0.390558 0.312110 -0.001118
-0.390490 0.312057 0.011707
-0.390166 0.311797 0.024526
-0.389584 0.311333 0.037329
-0.388747 0.310663 0.050109
-0.387654 0.309789 0.062858
-0.386305 0.308712 0.075566
-0.384703 0.307431 0.088226
-0.382847 0.305948 0.100830
-0.380740 0.304263 0.113368
-0.378382 0.302378 0.125833
-0.375775 0.300295 0.138216
-0.372921 0.298013 0.150510
-0.369821 0.295536 0.162705
-0.366479 0.292864 0.174796
-0.362895 0.289999 0.186772
-0.359072 0.286944 0.198627
-0.355013 0.283699 0.210352
-0.350720 0.280268 0.221940
-0.346197 0.276653 0.233384
-0.341446 0.272855 0.244675
-0.336470 0.268878 0.255806
-0.331273 0.264724 0.266771
-0.325858 0.260396 0.277561
-0.320229 0.255896 0.288170
-0.314389 0.251228 0.298590
-0.308342 0.246394 0.308815
-0.302092 0.241399 0.318839
-0.295643 0.236244 0.328653
-0.289000 0.230934 0.338253
-0.282167 0.225473 0.347632
-0.275148 0.219862 0.356783
-0.267948 0.214107 0.365701
-0.260572 0.208211 0.374379
-0.253024 0.202178 0.382812
-0.245310 0.196012 0.390995
-0.237434 0.189717 0.398922
-0.229402 0.183297 0.406587
-0.221220 0.176757 0.413987
-0.212891 0.170100 0.421115
-0.204423 0.163331 0.427967
-0.195820 0.156455 0.434539
-0.187089 0.149476 0.440827
-0.178234 0.142398 0.446825
-0.169262 0.135226 0.452531
-0.160178 0.127966 0.457940
-0.150990 0.120621 0.463050
-0.141701 0.113197 0.467856
-0.132320 0.105699 0.472355
