ply
format ascii 1.0
element vertex 1711
property float x
property float y
property float z
end_header
0.119701 -0.055167 0.484225
0.123501 -0.051367 0.484225
0.112101 -0.047567 0.488025
0.112101 -0.043767 0.488025
0.112101 -0.039967 0.488025
0.115901 -0.036167 0.488025
0.123501 -0.047567 0.484225
0.104501 -0.032367 0.491825
0.104501 -0.028567 0.491825
0.104501 -0.024767 0.491825
0.104501 -0.020967 0.491825
0.096901 -0.005767 0.491825
0.104501 -0.017167 0.491825
0.108301 -0.017167 0.491825
0.108301 -0.013367 0.491825
0.108301 -0.009567 0.491825
0.108301 -0.005767 0.491825
0.115901 -0.032367 0.488025
0.115901 -0.028567 0.488025
0.119701 -0.024767 0.488025
0.119701 -0.020967 0.488025
0.119701 -0.017167 0.488025
0.119701 -0.013367 0.488025
0.119701 -0.009567 0.488025
0.119701 -0.005767 0.488025
0.142501 -0.245167 0.415825
0.150101 -0.241367 0.415825
0.153901 -0.237567 0.415825
0.161501 -0.245167 0.408225
0.161501 -0.233767 0.415825
0.165301 -0.241367 0.408225
0.165301 -0.229967 0.415825
0.176701 -0.245167 0.400625
0.184301 -0.241367 0.400625
0.172901 -0.237567 0.408225
0.176701 -0.233767 0.408225
0.172901 -0.226167 0.415825
0.176701 -0.218567 0.415825
0.184301 -0.229967 0.408225
0.184301 -0.214767 0.415825
0.210901 -0.245167 0.381625
0.214701 -0.241367 0.381625
0.191901 -0.237567 0.400625
0.195701 -0.245167 0.389225
0.195701 -0.229967 0.400625
0.191901 -0.222367 0.408225
0.195701 -0.218567 0.408225
0.203301 -0.237567 0.389225
0.210901 -0.233767 0.389225
0.203301 -0.226167 0.400625
0.207101 -0.222367 0.400625
0.214701 -0.229967 0.389225
0.188101 -0.210967 0.415825
0.195701 -0.207167 0.415825
0.199501 -0.199567 0.415825
0.214701 -0.214767 0.400625
0.203301 -0.214767 0.408225
0.207101 -0.207167 0.408225
0.210901 -0.203367 0.408225
0.203301 -0.195767 0.415825
0.210901 -0.191967 0.415825
0.222301 -0.237567 0.381625
0.229901 -0.241367 0.374025
0.229901 -0.229967 0.381625
0.241301 -0.245167 0.366425
0.233701 -0.237567 0.374025
0.233701 -0.222367 0.381625
0.241301 -0.229967 0.374025
0.245101 -0.226167 0.374025
0.241301 -0.218567 0.381625
0.222301 -0.222367 0.389225
0.226101 -0.218567 0.389225
0.245101 -0.210967 0.381625
0.218501 -0.210967 0.400625
0.226101 -0.203367 0.400625
0.229901 -0.199567 0.400625
0.218501 -0.195767 0.408225
0.222301 -0.191967 0.408225
0.233701 -0.210967 0.389225
0.237501 -0.207167 0.389225
0.233701 -0.191967 0.400625
0.241301 -0.199567 0.389225
0.241301 -0.188167 0.400625
0.214701 -0.184367 0.415825
0.218501 -0.180567 0.415825
0.222301 -0.172967 0.415825
0.226101 -0.184367 0.408225
0.226101 -0.169167 0.415825
0.245101 -0.180567 0.400625
0.233701 -0.180567 0.408225
0.237501 -0.172967 0.408225
0.233701 -0.161567 0.415825
0.237501 -0.157767 0.415825
0.241301 -0.169167 0.408225
0.245101 -0.161567 0.408225
0.241301 -0.150167 0.415825
0.245101 -0.142567 0.415825
0.131101 -0.237567 0.419625
0.134901 -0.237567 0.419625
0.131101 -0.226167 0.427225
0.138701 -0.222367 0.427225
0.127301 -0.218567 0.434825
0.142501 -0.233767 0.419625
0.142501 -0.218567 0.427225
0.150101 -0.229967 0.419625
0.153901 -0.226167 0.419625
0.131101 -0.214767 0.434825
0.134901 -0.210967 0.434825
0.131101 -0.199567 0.442425
0.131101 -0.188167 0.446225
0.134901 -0.195767 0.442425
0.150101 -0.214767 0.427225
0.153901 -0.210967 0.427225
0.142501 -0.207167 0.434825
0.146301 -0.203367 0.434825
0.142501 -0.195767 0.442425
0.146301 -0.191967 0.442425
0.153901 -0.199567 0.434825
0.150101 -0.188167 0.442425
0.161501 -0.222367 0.419625
0.157701 -0.207167 0.427225
0.165301 -0.214767 0.419625
0.165301 -0.203367 0.427225
0.169101 -0.199567 0.427225
0.157701 -0.195767 0.434825
0.161501 -0.191967 0.434825
0.169101 -0.188167 0.434825
0.172901 -0.210967 0.419625
0.176701 -0.207167 0.419625
0.180501 -0.203367 0.419625
0.172901 -0.195767 0.427225
0.180501 -0.191967 0.427225
0.134901 -0.184367 0.446225
0.138701 -0.180567 0.446225
0.142501 -0.176767 0.446225
0.146301 -0.172967 0.446225
0.153901 -0.184367 0.442425
0.153901 -0.169167 0.446225
0.127301 -0.176767 0.453825
0.131101 -0.172967 0.453825
0.127301 -0.157767 0.457625
0.131101 -0.157767 0.457625
0.134901 -0.169167 0.453825
0.138701 -0.165367 0.453825
0.146301 -0.161567 0.453825
0.150101 -0.157767 0.453825
0.127301 -0.142567 0.461425
0.131101 -0.142567 0.461425
0.138701 -0.153967 0.457625
0.134901 -0.138767 0.461425
0.138701 -0.134967 0.461425
0.127301 -0.127367 0.469025
0.131101 -0.127367 0.469025
0.142501 -0.150167 0.457625
0.146301 -0.146367 0.457625
0.146301 -0.142567 0.457625
0.153901 -0.153967 0.453825
0.142501 -0.131167 0.461425
0.146301 -0.127367 0.461425
0.150101 -0.138767 0.457625
0.153901 -0.134967 0.457625
0.161501 -0.176767 0.442425
0.165301 -0.172967 0.442425
0.157701 -0.165367 0.446225
0.161501 -0.161567 0.446225
0.169101 -0.169167 0.442425
0.165301 -0.157767 0.446225
0.184301 -0.184367 0.427225
0.172901 -0.180567 0.434825
0.176701 -0.176767 0.434825
0.180501 -0.172967 0.434825
0.172901 -0.165367 0.442425
0.176701 -0.161567 0.442425
0.184301 -0.169167 0.434825
0.180501 -0.157767 0.442425
0.169101 -0.153967 0.446225
0.172901 -0.150167 0.446225
0.176701 -0.146367 0.446225
0.184301 -0.150167 0.442425
0.180501 -0.138767 0.446225
0.184301 -0.134967 0.446225
0.157701 -0.150167 0.453825
0.161501 -0.146367 0.453825
0.165301 -0.142567 0.453825
0.157701 -0.131167 0.457625
0.161501 -0.127367 0.457625
0.169101 -0.138767 0.453825
0.172901 -0.134967 0.453825
0.172901 -0.127367 0.453825
0.188101 -0.199567 0.419625
0.191901 -0.191967 0.419625
0.195701 -0.188167 0.419625
0.188101 -0.180567 0.427225
0.191901 -0.176767 0.427225
0.199501 -0.172967 0.427225
0.188101 -0.165367 0.434825
0.195701 -0.157767 0.434825
0.203301 -0.184367 0.419625
0.207101 -0.176767 0.419625
0.210901 -0.172967 0.419625
0.203301 -0.165367 0.427225
0.207101 -0.161567 0.427225
0.214701 -0.169167 0.419625
0.188101 -0.146367 0.442425
0.191901 -0.142567 0.442425
0.199501 -0.153967 0.434825
0.188101 -0.131167 0.446225
0.191901 -0.127367 0.446225
0.195701 -0.138767 0.442425
0.199501 -0.131167 0.442425
0.210901 -0.153967 0.427225
0.214701 -0.150167 0.427225
0.203301 -0.150167 0.434825
0.207101 -0.142567 0.434825
0.203301 -0.127367 0.442425
0.210901 -0.138767 0.434825
0.210901 -0.131167 0.434825
0.214701 -0.127367 0.434825
0.218501 -0.161567 0.419625
0.222301 -0.157767 0.419625
0.218501 -0.142567 0.427225
0.226101 -0.150167 0.419625
0.229901 -0.142567 0.419625
0.222301 -0.138767 0.427225
0.226101 -0.131167 0.427225
0.229901 -0.127367 0.427225
0.233701 -0.138767 0.419625
0.237501 -0.131167 0.419625
0.241301 -0.127367 0.419625
0.127301 -0.112167 0.472825
0.134901 -0.123567 0.469025
0.138701 -0.119767 0.469025
0.138701 -0.115967 0.469025
0.131101 -0.108367 0.472825
0.134901 -0.104567 0.472825
0.134901 -0.100767 0.472825
0.138701 -0.096967 0.472825
0.150101 -0.123567 0.461425
0.153901 -0.119767 0.461425
0.153901 -0.115967 0.461425
0.142501 -0.112167 0.469025
0.146301 -0.108367 0.469025
0.150101 -0.104567 0.469025
0.150101 -0.100767 0.469025
0.153901 -0.096967 0.469025
0.127301 -0.093167 0.476625
0.127301 -0.089367 0.476625
0.131101 -0.085567 0.476625
0.134901 -0.081767 0.476625
0.138701 -0.077967 0.476625
0.138701 -0.074167 0.476625
0.142501 -0.093167 0.472825
0.142501 -0.089367 0.472825
0.146301 -0.085567 0.472825
0.146301 -0.081767 0.472825
0.142501 -0.070367 0.476625
0.142501 -0.066567 0.476625
0.150101 -0.077967 0.472825
0.153901 -0.074167 0.472825
0.153901 -0.070367 0.472825
0.153901 -0.066567 0.472825
0.157701 -0.112167 0.461425
0.165301 -0.123567 0.457625
0.169101 -0.115967 0.457625
0.161501 -0.108367 0.461425
0.165301 -0.100767 0.461425
0.165301 -0.096967 0.461425
0.176701 -0.123567 0.453825
0.172901 -0.112167 0.457625
0.180501 -0.119767 0.453825
0.184301 -0.115967 0.453825
0.172901 -0.108367 0.457625
0.176701 -0.104567 0.457625
0.180501 -0.100767 0.457625
0.169101 -0.093167 0.461425
0.157701 -0.093167 0.469025
0.157701 -0.089367 0.469025
0.161501 -0.085567 0.469025
0.161501 -0.081767 0.469025
0.165301 -0.074167 0.469025
0.165301 -0.070367 0.469025
0.169101 -0.066567 0.469025
0.172901 -0.089367 0.461425
0.172901 -0.085567 0.461425
0.176701 -0.081767 0.461425
0.180501 -0.093167 0.457625
0.184301 -0.089367 0.457625
0.176701 -0.077967 0.461425
0.180501 -0.070367 0.461425
0.180501 -0.066567 0.461425
0.127301 -0.070367 0.480425
0.127301 -0.066567 0.480425
0.146301 -0.062767 0.476625
0.146301 -0.058967 0.476625
0.146301 -0.055167 0.476625
0.150101 -0.051367 0.476625
0.150101 -0.047567 0.476625
0.150101 -0.043767 0.476625
0.153901 -0.039967 0.476625
0.153901 -0.036167 0.476625
0.153901 -0.032367 0.476625
0.153901 -0.028567 0.476625
0.153901 -0.024767 0.476625
0.157701 -0.062767 0.472825
0.157701 -0.058967 0.472825
0.161501 -0.055167 0.472825
0.161501 -0.051367 0.472825
0.169101 -0.062767 0.469025
0.161501 -0.047567 0.472825
0.165301 -0.043767 0.472825
0.165301 -0.036167 0.472825
0.184301 -0.062767 0.461425
0.184301 -0.058967 0.461425
0.184301 -0.051367 0.461425
0.172901 -0.058967 0.469025
0.172901 -0.055167 0.469025
0.172901 -0.051367 0.469025
0.176701 -0.043767 0.469025
0.176701 -0.039967 0.469025
0.176701 -0.036167 0.469025
0.157701 -0.020967 0.476625
0.165301 -0.032367 0.472825
0.165301 -0.028567 0.472825
0.169101 -0.024767 0.472825
0.169101 -0.020967 0.472825
0.157701 -0.013367 0.476625
0.157701 -0.009567 0.476625
0.157701 -0.005767 0.476625
0.169101 -0.017167 0.472825
0.169101 -0.013367 0.472825
0.169101 -0.009567 0.472825
0.180501 -0.032367 0.469025
0.180501 -0.028567 0.469025
0.180501 -0.020967 0.469025
0.180501 -0.017167 0.469025
0.180501 -0.013367 0.469025
0.180501 -0.009567 0.469025
0.131101 -0.062767 0.480425
0.131101 -0.058967 0.480425
0.134901 -0.058967 0.480425
0.134901 -0.055167 0.480425
0.134901 -0.051367 0.480425
0.127301 -0.043767 0.484225
0.127301 -0.039967 0.484225
0.127301 -0.036167 0.484225
0.138701 -0.047567 0.480425
0.138701 -0.043767 0.480425
0.138701 -0.039967 0.480425
0.138701 -0.036167 0.480425
0.127301 -0.032367 0.484225
0.131101 -0.028567 0.484225
0.131101 -0.024767 0.484225
0.131101 -0.020967 0.484225
0.131101 -0.017167 0.484225
0.131101 -0.013367 0.484225
0.131101 -0.009567 0.484225
0.131101 -0.005767 0.484225
0.142501 -0.032367 0.480425
0.142501 -0.028567 0.480425
0.142501 -0.024767 0.480425
0.142501 -0.020967 0.480425
0.142501 -0.017167 0.480425
0.142501 -0.013367 0.480425
0.146301 -0.009567 0.480425
0.146301 -0.005767 0.480425
0.191901 -0.119767 0.446225
0.195701 -0.115967 0.446225
0.199501 -0.112167 0.446225
0.207101 -0.123567 0.442425
0.210901 -0.115967 0.442425
0.210901 -0.112167 0.442425
0.203301 -0.104567 0.446225
0.203301 -0.100767 0.446225
0.207101 -0.096967 0.446225
0.214701 -0.104567 0.442425
0.188101 -0.108367 0.453825
0.188101 -0.104567 0.453825
0.191901 -0.100767 0.453825
0.195701 -0.096967 0.453825
0.210901 -0.089367 0.446225
0.210901 -0.085567 0.446225
0.214701 -0.077967 0.446225
0.214701 -0.074167 0.446225
0.188101 -0.085567 0.457625
0.188101 -0.081767 0.457625
0.195701 -0.089367 0.453825
0.199501 -0.085567 0.453825
0.199501 -0.081767 0.453825
0.191901 -0.074167 0.457625
0.191901 -0.070367 0.457625
0.195701 -0.066567 0.457625
0.203301 -0.074167 0.453825
0.203301 -0.070367 0.453825
0.218501 -0.123567 0.434825
0.222301 -0.115967 0.434825
0.226101 -0.112167 0.434825
0.218501 -0.100767 0.442425
0.226101 -0.104567 0.434825
0.229901 -0.096967 0.434825
0.233701 -0.119767 0.427225
0.233701 -0.115967 0.427225
0.245101 -0.119767 0.419625
0.237501 -0.108367 0.427225
0.241301 -0.104567 0.427225
0.241301 -0.096967 0.427225
0.218501 -0.093167 0.442425
0.222301 -0.089367 0.442425
0.226101 -0.081767 0.442425
0.218501 -0.066567 0.446225
0.226101 -0.077967 0.442425
0.229901 -0.070367 0.442425
0.229901 -0.066567 0.442425
0.245101 -0.089367 0.427225
0.233701 -0.093167 0.434825
0.233701 -0.085567 0.434825
0.237501 -0.081767 0.434825
0.237501 -0.074167 0.434825
0.241301 -0.066567 0.434825
0.195701 -0.062767 0.457625
0.195701 -0.055167 0.457625
0.199501 -0.051367 0.457625
0.188101 -0.047567 0.461425
0.188101 -0.043767 0.461425
0.188101 -0.039967 0.461425
0.199501 -0.047567 0.457625
0.199501 -0.039967 0.457625
0.207101 -0.062767 0.453825
0.207101 -0.058967 0.453825
0.210901 -0.055167 0.453825
0.203301 -0.036167 0.457625
0.210901 -0.047567 0.453825
0.210901 -0.043767 0.453825
0.214701 -0.036167 0.453825
0.191901 -0.032367 0.461425
0.191901 -0.028567 0.461425
0.191901 -0.024767 0.461425
0.191901 -0.017167 0.461425
0.191901 -0.013367 0.461425
0.191901 -0.009567 0.461425
0.203301 -0.028567 0.457625
0.203301 -0.024767 0.457625
0.203301 -0.020967 0.457625
0.214701 -0.032367 0.453825
0.214701 -0.024767 0.453825
0.214701 -0.020967 0.453825
0.203301 -0.013367 0.457625
0.203301 -0.009567 0.457625
0.203301 -0.005767 0.457625
0.214701 -0.017167 0.453825
0.214701 -0.009567 0.453825
0.218501 -0.062767 0.446225
0.222301 -0.055167 0.446225
0.222301 -0.051367 0.446225
0.222301 -0.043767 0.446225
0.226101 -0.039967 0.446225
0.233701 -0.058967 0.442425
0.233701 -0.055167 0.442425
0.241301 -0.062767 0.434825
0.245101 -0.055167 0.434825
0.245101 -0.051367 0.434825
0.233701 -0.047567 0.442425
0.237501 -0.039967 0.442425
0.237501 -0.036167 0.442425
0.245101 -0.043767 0.434825
0.226101 -0.032367 0.446225
0.226101 -0.028567 0.446225
0.226101 -0.020967 0.446225
0.226101 -0.017167 0.446225
0.226101 -0.009567 0.446225
0.229901 -0.005767 0.446225
0.237501 -0.028567 0.442425
0.237501 -0.024767 0.442425
0.237501 -0.017167 0.442425
0.237501 -0.009567 0.442425
0.241301 -0.005767 0.442425
0.218501 -0.005767 0.453825
0.248901 -0.427567 0.062425
0.260301 -0.423767 0.062425
0.248901 -0.427567 0.073825
0.260301 -0.419967 0.073825
0.271701 -0.416167 0.062425
0.267901 -0.416167 0.073825
0.256501 -0.419967 0.089025
0.256501 -0.416167 0.100425
0.256501 -0.416167 0.111825
0.267901 -0.412367 0.089025
0.267901 -0.412367 0.100425
0.264101 -0.408567 0.111825
0.275501 -0.400967 0.111825
0.279301 -0.408567 0.062425
0.290701 -0.400967 0.062425
0.279301 -0.408567 0.073825
0.290701 -0.400967 0.073825
0.279301 -0.404767 0.089025
0.279301 -0.404767 0.100425
0.302101 -0.393367 0.062425
0.302101 -0.393367 0.073825
0.290701 -0.397167 0.089025
0.286901 -0.397167 0.100425
0.286901 -0.393367 0.111825
0.298301 -0.389567 0.089025
0.298301 -0.389567 0.100425
0.294501 -0.385767 0.111825
0.305901 -0.378167 0.111825
0.252701 -0.412367 0.127025
0.252701 -0.408567 0.138425
0.264101 -0.404767 0.127025
0.275501 -0.400967 0.127025
0.264101 -0.404767 0.138425
0.248901 -0.408567 0.149825
0.260301 -0.400967 0.149825
0.248901 -0.404767 0.161225
0.271701 -0.397167 0.138425
0.256501 -0.397167 0.161225
0.271701 -0.393367 0.149825
0.267901 -0.389567 0.161225
0.283101 -0.393367 0.127025
0.283101 -0.389567 0.138425
0.290701 -0.381967 0.138425
0.294501 -0.385767 0.127025
0.305901 -0.378167 0.127025
0.302101 -0.374367 0.138425
0.279301 -0.385767 0.149825
0.290701 -0.378167 0.149825
0.279301 -0.381967 0.161225
0.286901 -0.374367 0.161225
0.298301 -0.370567 0.149825
0.313501 -0.385767 0.062425
0.309701 -0.385767 0.073825
0.321101 -0.378167 0.062425
0.321101 -0.378167 0.073825
0.332501 -0.370567 0.062425
0.309701 -0.381967 0.089025
0.317301 -0.374367 0.089025
0.309701 -0.381967 0.100425
0.317301 -0.374367 0.100425
0.317301 -0.370567 0.111825
0.313501 -0.370567 0.127025
0.252701 -0.389567 0.187825
0.256501 -0.393367 0.176425
0.248901 -0.385767 0.199225
0.260301 -0.378167 0.199225
0.264101 -0.385767 0.176425
0.264101 -0.381967 0.187825
0.275501 -0.378167 0.176425
0.271701 -0.374367 0.187825
0.271701 -0.370567 0.199225
0.248901 -0.381967 0.210625
0.256501 -0.374367 0.210625
0.252701 -0.370567 0.222025
0.283101 -0.370567 0.187825
0.286901 -0.374367 0.176425
0.298301 -0.366767 0.161225
0.305901 -0.359167 0.161225
0.328701 -0.366767 0.073825
0.328701 -0.366767 0.089025
0.336301 -0.359167 0.089025
0.328701 -0.366767 0.100425
0.324901 -0.362967 0.111825
0.336301 -0.355367 0.100425
0.332501 -0.355367 0.111825
0.340101 -0.362967 0.062425
0.340101 -0.359167 0.073825
0.351501 -0.351567 0.062425
0.347701 -0.351567 0.073825
0.359101 -0.343967 0.062425
0.359101 -0.340167 0.073825
0.347701 -0.347767 0.089025
0.343901 -0.347767 0.100425
0.343901 -0.347767 0.111825
0.355301 -0.340167 0.089025
0.355301 -0.340167 0.100425
0.366701 -0.332567 0.062425
0.366701 -0.332567 0.073825
0.351501 -0.336367 0.111825
0.362901 -0.332567 0.089025
0.359101 -0.328767 0.111825
0.362901 -0.328767 0.100425
0.313501 -0.366767 0.138425
0.321101 -0.359167 0.138425
0.324901 -0.359167 0.127025
0.332501 -0.351567 0.127025
0.328701 -0.351567 0.138425
0.309701 -0.362967 0.149825
0.317301 -0.355367 0.149825
0.317301 -0.351567 0.161225
0.328701 -0.347767 0.149825
0.336301 -0.340167 0.149825
0.324901 -0.343967 0.161225
0.332501 -0.336367 0.161225
0.340101 -0.343967 0.127025
0.340101 -0.340167 0.138425
0.351501 -0.336367 0.127025
0.347701 -0.332567 0.138425
0.359101 -0.324967 0.127025
0.355301 -0.324967 0.138425
0.366701 -0.317367 0.127025
0.362901 -0.313567 0.138425
0.343901 -0.328767 0.149825
0.343901 -0.328767 0.161225
0.351501 -0.321167 0.149825
0.351501 -0.317367 0.161225
0.362901 -0.313567 0.149825
0.359101 -0.309767 0.161225
0.366701 -0.298367 0.161225
0.252701 -0.366767 0.233425
0.260301 -0.359167 0.233425
0.267901 -0.366767 0.210625
0.275501 -0.359167 0.210625
0.264101 -0.362967 0.222025
0.271701 -0.355367 0.222025
0.267901 -0.351567 0.233425
0.290701 -0.362967 0.187825
0.279301 -0.366767 0.199225
0.286901 -0.359167 0.199225
0.294501 -0.366767 0.176425
0.302101 -0.359167 0.176425
0.302101 -0.355367 0.187825
0.298301 -0.351567 0.199225
0.305901 -0.343967 0.199225
0.286901 -0.355367 0.210625
0.283101 -0.347767 0.222025
0.279301 -0.343967 0.233425
0.290701 -0.343967 0.222025
0.294501 -0.347767 0.210625
0.302101 -0.340167 0.210625
0.286901 -0.336367 0.233425
0.298301 -0.336367 0.222025
0.294501 -0.328767 0.233425
0.305901 -0.321167 0.233425
0.248901 -0.359167 0.244825
0.256501 -0.355367 0.244825
0.252701 -0.347767 0.256225
0.260301 -0.343967 0.256225
0.264101 -0.347767 0.244825
0.275501 -0.340167 0.244825
0.248901 -0.343967 0.267625
0.271701 -0.336367 0.256225
0.252701 -0.332567 0.279025
0.256501 -0.336367 0.267625
0.260301 -0.324967 0.279025
0.248901 -0.324967 0.286625
0.256501 -0.317367 0.286625
0.267901 -0.328767 0.267625
0.275501 -0.324967 0.267625
0.271701 -0.317367 0.279025
0.264101 -0.313567 0.286625
0.283101 -0.332567 0.244825
0.290701 -0.324967 0.244825
0.279301 -0.328767 0.256225
0.286901 -0.321167 0.256225
0.298301 -0.317367 0.244825
0.294501 -0.313567 0.256225
0.283101 -0.317367 0.267625
0.279301 -0.309767 0.279025
0.290701 -0.309767 0.267625
0.271701 -0.305967 0.286625
0.302101 -0.305967 0.256225
0.286901 -0.302167 0.279025
0.283101 -0.298367 0.286625
0.290701 -0.290767 0.286625
0.298301 -0.302167 0.267625
0.294501 -0.294567 0.279025
0.305901 -0.294567 0.267625
0.302101 -0.286967 0.279025
0.294501 -0.283167 0.286625
0.302101 -0.275567 0.286625
0.313501 -0.347767 0.176425
0.309701 -0.347767 0.187825
0.321101 -0.340167 0.176425
0.317301 -0.336367 0.187825
0.313501 -0.336367 0.199225
0.328701 -0.332567 0.176425
0.328701 -0.328767 0.187825
0.324901 -0.324967 0.199225
0.336301 -0.321167 0.187825
0.332501 -0.317367 0.199225
0.313501 -0.332567 0.210625
0.309701 -0.324967 0.222025
0.321101 -0.321167 0.210625
0.313501 -0.313567 0.233425
0.317301 -0.317367 0.222025
0.328701 -0.313567 0.210625
0.324901 -0.309767 0.222025
0.340101 -0.324967 0.176425
0.343901 -0.313567 0.187825
0.347701 -0.317367 0.176425
0.340101 -0.309767 0.199225
0.309701 -0.309767 0.244825
0.321101 -0.305967 0.233425
0.336301 -0.305967 0.210625
0.328701 -0.298367 0.233425
0.332501 -0.302167 0.222025
0.336301 -0.290767 0.233425
0.351501 -0.302167 0.187825
0.347701 -0.302167 0.199225
0.355301 -0.305967 0.176425
0.359101 -0.294567 0.187825
0.362901 -0.298367 0.176425
0.366701 -0.286967 0.187825
0.355301 -0.290767 0.199225
0.362901 -0.283167 0.199225
0.343901 -0.298367 0.210625
0.340101 -0.294567 0.222025
0.351501 -0.286967 0.210625
0.343901 -0.279367 0.233425
0.347701 -0.283167 0.222025
0.359101 -0.279367 0.210625
0.351501 -0.271767 0.233425
0.366701 -0.267967 0.210625
0.355301 -0.275567 0.222025
0.355301 -0.264167 0.233425
0.362901 -0.267967 0.222025
0.366701 -0.256567 0.222025
0.362901 -0.252767 0.233425
0.317301 -0.302167 0.244825
0.309701 -0.298367 0.256225
0.317301 -0.290767 0.256225
0.324901 -0.294567 0.244825
0.332501 -0.286967 0.244825
0.324901 -0.283167 0.256225
0.313501 -0.286967 0.267625
0.309701 -0.279367 0.279025
0.336301 -0.275567 0.244825
0.332501 -0.271767 0.256225
0.321101 -0.275567 0.267625
0.317301 -0.271767 0.279025
0.321101 -0.264167 0.279025
0.309701 -0.267967 0.286625
0.317301 -0.260367 0.286625
0.328701 -0.267967 0.267625
0.328701 -0.256567 0.279025
0.336301 -0.260367 0.267625
0.336301 -0.248967 0.279025
0.324901 -0.252767 0.286625
0.343901 -0.267967 0.244825
0.340101 -0.264167 0.256225
0.351501 -0.260367 0.244825
0.347701 -0.256567 0.256225
0.359101 -0.248967 0.244825
0.340101 -0.252767 0.267625
0.374301 -0.324967 0.062425
0.374301 -0.324967 0.073825
0.381901 -0.313567 0.073825
0.385701 -0.313567 0.062425
0.374301 -0.321167 0.089025
0.381901 -0.313567 0.089025
0.370501 -0.321167 0.100425
0.370501 -0.317367 0.111825
0.378101 -0.309767 0.100425
0.378101 -0.309767 0.111825
0.393301 -0.305967 0.062425
0.389501 -0.302167 0.073825
0.397101 -0.294567 0.073825
0.389501 -0.302167 0.089025
0.385701 -0.302167 0.100425
0.385701 -0.298367 0.111825
0.397101 -0.290767 0.089025
0.393301 -0.290767 0.100425
0.393301 -0.290767 0.111825
0.400901 -0.294567 0.062425
0.408501 -0.283167 0.062425
0.404701 -0.283167 0.073825
0.404701 -0.283167 0.089025
0.400901 -0.279367 0.100425
0.400901 -0.279367 0.111825
0.412301 -0.271767 0.062425
0.412301 -0.271767 0.073825
0.419901 -0.264167 0.062425
0.427501 -0.252767 0.062425
0.419901 -0.260367 0.073825
0.427501 -0.252767 0.073825
0.412301 -0.271767 0.089025
0.408501 -0.271767 0.100425
0.408501 -0.267967 0.111825
0.412301 -0.256567 0.111825
0.416101 -0.260367 0.089025
0.423701 -0.248967 0.089025
0.416101 -0.260367 0.100425
0.419901 -0.248967 0.111825
0.423701 -0.248967 0.100425
0.374301 -0.305967 0.127025
0.381901 -0.298367 0.127025
0.370501 -0.305967 0.138425
0.378101 -0.294567 0.138425
0.389501 -0.286967 0.127025
0.385701 -0.286967 0.138425
0.370501 -0.302167 0.149825
0.378101 -0.294567 0.149825
0.374301 -0.290767 0.161225
0.381901 -0.279367 0.161225
0.385701 -0.283167 0.149825
0.397101 -0.275567 0.127025
0.393301 -0.275567 0.138425
0.393301 -0.271767 0.149825
0.397101 -0.264167 0.149825
0.389501 -0.271767 0.161225
0.393301 -0.260367 0.161225
0.404701 -0.267967 0.127025
0.400901 -0.264167 0.138425
0.412301 -0.256567 0.127025
0.408501 -0.256567 0.138425
0.404701 -0.252767 0.149825
0.400901 -0.248967 0.161225
0.370501 -0.286967 0.176425
0.378101 -0.279367 0.176425
0.374301 -0.275567 0.187825
0.381901 -0.264167 0.187825
0.370501 -0.271767 0.199225
0.378101 -0.264167 0.199225
0.381901 -0.252767 0.199225
0.385701 -0.267967 0.176425
0.389501 -0.256567 0.187825
0.393301 -0.260367 0.176425
0.397101 -0.248967 0.176425
0.374301 -0.260367 0.210625
0.378101 -0.248967 0.210625
0.374301 -0.248967 0.222025
0.252701 -0.313567 0.298025
0.248901 -0.305967 0.309425
0.260301 -0.305967 0.298025
0.256501 -0.302167 0.309425
0.248901 -0.294567 0.317025
0.256501 -0.286967 0.317025
0.267901 -0.298367 0.298025
0.264101 -0.294567 0.309425
0.275501 -0.294567 0.298025
0.271701 -0.286967 0.309425
0.264101 -0.283167 0.317025
0.252701 -0.283167 0.328425
0.271701 -0.275567 0.317025
0.252701 -0.267967 0.339825
0.260301 -0.275567 0.328425
0.260301 -0.264167 0.339825
0.248901 -0.264167 0.347425
0.252701 -0.256567 0.347425
0.248901 -0.248967 0.355025
0.260301 -0.248967 0.347425
0.267901 -0.267967 0.328425
0.267901 -0.256567 0.339825
0.271701 -0.260367 0.328425
0.275501 -0.248967 0.339825
0.283101 -0.286967 0.298025
0.279301 -0.279367 0.309425
0.290701 -0.279367 0.298025
0.286901 -0.271767 0.309425
0.290701 -0.264167 0.309425
0.279301 -0.267967 0.317025
0.286901 -0.260367 0.317025
0.298301 -0.271767 0.298025
0.305901 -0.264167 0.298025
0.298301 -0.256567 0.309425
0.305901 -0.248967 0.309425
0.294501 -0.252767 0.317025
0.279301 -0.252767 0.328425
0.286901 -0.248967 0.328425
0.309701 -0.256567 0.298025
0.317301 -0.248967 0.298025
0.328701 -0.245167 0.286625
0.336301 -0.233767 0.286625
0.351501 -0.245167 0.256225
0.362901 -0.241367 0.244825
0.359101 -0.237567 0.256225
0.366701 -0.229967 0.256225
0.343901 -0.237567 0.279025
0.347701 -0.241367 0.267625
0.347701 -0.229967 0.279025
0.343901 -0.226167 0.286625
0.347701 -0.218567 0.286625
0.355301 -0.233767 0.267625
0.359101 -0.226167 0.267625
0.355301 -0.222367 0.279025
0.351501 -0.207167 0.286625
0.359101 -0.210967 0.279025
0.366701 -0.214767 0.267625
0.362901 -0.203367 0.279025
0.359101 -0.199567 0.286625
0.362901 -0.188167 0.286625
0.366701 -0.180567 0.286625
0.427501 -0.237567 0.100425
0.427501 -0.237567 0.111825
0.416101 -0.245167 0.127025
0.423701 -0.233767 0.127025
0.416101 -0.245167 0.138425
0.419901 -0.233767 0.138425
0.427501 -0.226167 0.127025
0.427501 -0.222367 0.138425
0.412301 -0.241367 0.149825
0.408501 -0.241367 0.161225
0.412301 -0.229967 0.161225
0.416101 -0.229967 0.149825
0.423701 -0.222367 0.149825
0.419901 -0.218567 0.161225
0.427501 -0.210967 0.149825
0.423701 -0.207167 0.161225
0.435101 -0.241367 0.062425
0.431301 -0.241367 0.073825
0.438901 -0.229967 0.062425
0.438901 -0.229967 0.073825
0.442701 -0.218567 0.073825
0.446501 -0.218567 0.062425
0.431301 -0.237567 0.089025
0.435101 -0.226167 0.089025
0.442701 -0.218567 0.089025
0.435101 -0.226167 0.100425
0.431301 -0.226167 0.111825
0.450301 -0.207167 0.062425
0.450301 -0.207167 0.073825
0.457901 -0.195767 0.062425
0.454101 -0.195767 0.073825
0.438901 -0.214767 0.100425
0.438901 -0.214767 0.111825
0.442701 -0.203367 0.111825
0.446501 -0.207167 0.089025
0.446501 -0.203367 0.100425
0.454101 -0.191967 0.089025
0.450301 -0.191967 0.100425
0.446501 -0.191967 0.111825
0.435101 -0.214767 0.127025
0.438901 -0.203367 0.127025
0.431301 -0.210967 0.138425
0.438901 -0.199567 0.138425
0.442701 -0.188167 0.138425
0.446501 -0.191967 0.127025
0.435101 -0.199567 0.149825
0.438901 -0.188167 0.149825
0.431301 -0.195767 0.161225
0.435101 -0.188167 0.161225
0.457901 -0.184367 0.073825
0.457901 -0.180567 0.089025
0.454101 -0.180567 0.100425
0.454101 -0.180567 0.111825
0.457901 -0.169167 0.111825
0.461701 -0.184367 0.062425
0.465501 -0.172967 0.062425
0.469301 -0.157767 0.062425
0.465501 -0.169167 0.073825
0.469301 -0.157767 0.073825
0.461701 -0.169167 0.089025
0.465501 -0.157767 0.089025
0.461701 -0.169167 0.100425
0.465501 -0.157767 0.100425
0.461701 -0.157767 0.111825
0.473101 -0.146367 0.062425
0.473101 -0.146367 0.073825
0.476901 -0.134967 0.062425
0.476901 -0.134967 0.073825
0.469301 -0.146367 0.089025
0.465501 -0.146367 0.111825
0.469301 -0.146367 0.100425
0.473101 -0.134967 0.089025
0.473101 -0.134967 0.100425
0.469301 -0.131167 0.111825
0.450301 -0.180567 0.127025
0.446501 -0.176767 0.138425
0.454101 -0.169167 0.127025
0.450301 -0.165367 0.138425
0.442701 -0.176767 0.149825
0.438901 -0.176767 0.161225
0.442701 -0.165367 0.161225
0.446501 -0.165367 0.149825
0.457901 -0.153967 0.127025
0.454101 -0.153967 0.138425
0.457901 -0.142567 0.138425
0.450301 -0.153967 0.149825
0.454101 -0.142567 0.149825
0.446501 -0.153967 0.161225
0.450301 -0.142567 0.161225
0.457901 -0.131167 0.149825
0.454101 -0.127367 0.161225
0.461701 -0.142567 0.127025
0.465501 -0.131167 0.127025
0.461701 -0.131167 0.138425
0.393301 -0.245167 0.187825
0.389501 -0.245167 0.199225
0.397101 -0.233767 0.199225
0.370501 -0.245167 0.233425
0.374301 -0.233767 0.233425
0.381901 -0.237567 0.222025
0.381901 -0.226167 0.233425
0.385701 -0.241367 0.210625
0.393301 -0.229967 0.210625
0.397101 -0.222367 0.210625
0.385701 -0.226167 0.222025
0.393301 -0.218567 0.222025
0.385701 -0.214767 0.233425
0.397101 -0.207167 0.222025
0.393301 -0.203367 0.233425
0.397101 -0.195767 0.233425
0.404701 -0.237567 0.176425
0.400901 -0.237567 0.187825
0.404701 -0.226167 0.187825
0.408501 -0.226167 0.176425
0.400901 -0.222367 0.199225
0.416101 -0.218567 0.176425
0.412301 -0.214767 0.187825
0.408501 -0.210967 0.199225
0.412301 -0.203367 0.199225
0.419901 -0.207167 0.176425
0.416101 -0.203367 0.187825
0.427501 -0.195767 0.176425
0.423701 -0.191967 0.187825
0.416101 -0.191967 0.199225
0.404701 -0.210967 0.210625
0.408501 -0.199567 0.210625
0.412301 -0.188167 0.210625
0.404701 -0.195767 0.222025
0.408501 -0.188167 0.222025
0.370501 -0.229967 0.244825
0.378101 -0.222367 0.244825
0.370501 -0.218567 0.256225
0.381901 -0.210967 0.244825
0.378101 -0.210967 0.256225
0.381901 -0.199567 0.256225
0.385701 -0.203367 0.244825
0.393301 -0.191967 0.244825
0.385701 -0.188167 0.256225
0.370501 -0.207167 0.267625
0.374301 -0.195767 0.267625
0.370501 -0.191967 0.279025
0.381901 -0.188167 0.267625
0.427501 -0.184367 0.187825
0.423701 -0.180567 0.199225
0.427501 -0.169167 0.199225
0.404701 -0.184367 0.233425
0.412301 -0.176767 0.222025
0.408501 -0.172967 0.233425
0.412301 -0.165367 0.233425
0.416101 -0.180567 0.210625
0.423701 -0.169167 0.210625
0.427501 -0.157767 0.210625
0.416101 -0.165367 0.222025
0.419901 -0.153967 0.222025
0.416101 -0.153967 0.233425
0.419901 -0.142567 0.233425
0.423701 -0.142567 0.222025
0.427501 -0.134967 0.222025
0.423701 -0.131167 0.233425
0.397101 -0.180567 0.244825
0.393301 -0.180567 0.256225
0.397101 -0.169167 0.256225
0.374301 -0.184367 0.279025
0.378101 -0.172967 0.279025
0.381901 -0.165367 0.279025
0.374301 -0.169167 0.286625
0.378101 -0.161567 0.286625
0.385701 -0.176767 0.267625
0.389501 -0.165367 0.267625
0.393301 -0.157767 0.267625
0.381901 -0.150167 0.286625
0.389501 -0.153967 0.279025
0.397101 -0.146367 0.267625
0.393301 -0.142567 0.279025
0.385701 -0.142567 0.286625
0.393301 -0.134967 0.279025
0.389501 -0.131167 0.286625
0.400901 -0.172967 0.244825
0.404701 -0.161567 0.244825
0.400901 -0.157767 0.256225
0.408501 -0.150167 0.244825
0.404701 -0.150167 0.256225
0.412301 -0.138767 0.244825
0.408501 -0.138767 0.256225
0.412301 -0.127367 0.256225
0.416101 -0.131167 0.244825
0.400901 -0.134967 0.267625
0.404701 -0.127367 0.267625
0.431301 -0.184367 0.176425
0.435101 -0.172967 0.176425
0.431301 -0.172967 0.187825
0.435101 -0.161567 0.187825
0.438901 -0.161567 0.176425
0.431301 -0.157767 0.199225
0.442701 -0.150167 0.176425
0.438901 -0.150167 0.187825
0.435101 -0.146367 0.199225
0.442701 -0.138767 0.187825
0.438901 -0.134967 0.199225
0.446501 -0.138767 0.176425
0.450301 -0.127367 0.176425
0.446501 -0.127367 0.187825
0.431301 -0.146367 0.210625
0.435101 -0.134967 0.210625
0.480701 -0.123567 0.062425
0.484501 -0.112167 0.062425
0.480701 -0.123567 0.073825
0.480701 -0.112167 0.073825
0.488301 -0.096967 0.062425
0.484501 -0.096967 0.073825
0.473101 -0.119767 0.100425
0.473101 -0.119767 0.111825
0.476901 -0.123567 0.089025
0.480701 -0.108367 0.089025
0.484501 -0.096967 0.089025
0.476901 -0.108367 0.100425
0.476901 -0.108367 0.111825
0.480701 -0.096967 0.100425
0.476901 -0.096967 0.111825
0.488301 -0.085567 0.062425
0.488301 -0.085567 0.073825
0.488301 -0.074167 0.073825
0.484501 -0.085567 0.089025
0.480701 -0.085567 0.111825
0.484501 -0.085567 0.100425
0.488301 -0.074167 0.089025
0.480701 -0.070367 0.111825
0.484501 -0.070367 0.100425
0.457901 -0.115967 0.161225
0.469301 -0.119767 0.127025
0.465501 -0.119767 0.138425
0.473101 -0.108367 0.127025
0.473101 -0.096967 0.127025
0.469301 -0.108367 0.138425
0.473101 -0.096967 0.138425
0.461701 -0.119767 0.149825
0.465501 -0.108367 0.149825
0.461701 -0.104567 0.161225
0.473101 -0.081767 0.138425
0.476901 -0.085567 0.127025
0.480701 -0.070367 0.127025
0.476901 -0.070367 0.138425
0.469301 -0.093167 0.149825
0.469301 -0.081767 0.149825
0.465501 -0.093167 0.161225
0.465501 -0.081767 0.161225
0.473101 -0.070367 0.149825
0.469301 -0.070367 0.161225
0.488301 -0.058967 0.089025
0.488301 -0.058967 0.100425
0.484501 -0.058967 0.111825
0.488301 -0.047567 0.100425
0.484501 -0.047567 0.111825
0.488301 -0.036167 0.100425
0.484501 -0.036167 0.111825
0.488301 -0.020967 0.100425
0.488301 -0.020967 0.111825
0.488301 -0.009567 0.100425
0.488301 -0.009567 0.111825
0.480701 -0.058967 0.127025
0.476901 -0.058967 0.138425
0.480701 -0.047567 0.127025
0.484501 -0.036167 0.127025
0.480701 -0.047567 0.138425
0.473101 -0.058967 0.149825
0.469301 -0.058967 0.161225
0.473101 -0.047567 0.161225
0.476901 -0.047567 0.149825
0.484501 -0.020967 0.127025
0.480701 -0.032367 0.138425
0.480701 -0.020967 0.138425
0.484501 -0.009567 0.127025
0.480701 -0.009567 0.138425
0.473101 -0.032367 0.161225
0.473101 -0.020967 0.161225
0.473101 -0.009567 0.161225
0.476901 -0.032367 0.149825
0.476901 -0.020967 0.149825
0.476901 -0.009567 0.149825
0.427501 -0.119767 0.233425
0.427501 -0.108367 0.233425
0.397101 -0.123567 0.279025
0.393301 -0.123567 0.286625
0.393301 -0.112167 0.286625
0.397101 -0.100767 0.286625
0.419901 -0.119767 0.244825
0.416101 -0.115967 0.256225
0.423701 -0.108367 0.244825
0.427501 -0.096967 0.244825
0.416101 -0.108367 0.256225
0.419901 -0.096967 0.256225
0.400901 -0.112167 0.279025
0.408501 -0.115967 0.267625
0.404701 -0.104567 0.279025
0.412301 -0.104567 0.267625
0.427501 -0.085567 0.244825
0.423701 -0.085567 0.256225
0.423701 -0.074167 0.256225
0.412301 -0.093167 0.267625
0.408501 -0.093167 0.279025
0.408501 -0.081767 0.279025
0.400901 -0.093167 0.286625
0.400901 -0.081767 0.286625
0.412301 -0.070367 0.279025
0.404701 -0.070367 0.286625
0.416101 -0.085567 0.267625
0.416101 -0.074167 0.267625
0.427501 -0.062767 0.256225
0.427501 -0.051367 0.256225
0.427501 -0.039967 0.256225
0.412301 -0.062767 0.279025
0.412301 -0.051367 0.279025
0.404701 -0.058967 0.286625
0.408501 -0.051367 0.286625
0.408501 -0.039967 0.286625
0.419901 -0.062767 0.267625
0.419901 -0.051367 0.267625
0.416101 -0.039967 0.279025
0.423701 -0.039967 0.267625
0.408501 -0.028567 0.286625
0.408501 -0.017167 0.286625
0.408501 -0.009567 0.286625
0.416101 -0.028567 0.279025
0.423701 -0.028567 0.267625
0.423701 -0.020967 0.267625
0.416101 -0.017167 0.279025
0.416101 -0.009567 0.279025
0.423701 -0.009567 0.267625
0.442701 -0.123567 0.199225
0.450301 -0.115967 0.187825
0.454101 -0.115967 0.176425
0.446501 -0.112167 0.199225
0.457901 -0.104567 0.176425
0.454101 -0.104567 0.187825
0.446501 -0.100767 0.199225
0.438901 -0.123567 0.210625
0.438901 -0.112167 0.210625
0.431301 -0.123567 0.222025
0.435101 -0.112167 0.222025
0.442701 -0.100767 0.210625
0.431301 -0.096967 0.233425
0.438901 -0.100767 0.222025
0.454101 -0.093167 0.187825
0.457901 -0.081767 0.187825
0.450301 -0.089367 0.199225
0.457901 -0.070367 0.187825
0.454101 -0.077967 0.199225
0.454101 -0.066567 0.199225
0.435101 -0.089367 0.233425
0.438901 -0.089367 0.222025
0.435101 -0.077967 0.233425
0.442701 -0.077967 0.222025
0.442701 -0.066567 0.222025
0.438901 -0.066567 0.233425
0.446501 -0.089367 0.210625
0.446501 -0.077967 0.210625
0.450301 -0.066567 0.210625
0.461701 -0.093167 0.176425
0.461701 -0.081767 0.176425
0.465501 -0.070367 0.176425
0.431301 -0.074167 0.244825
0.457901 -0.055167 0.199225
0.457901 -0.043767 0.199225
0.438901 -0.055167 0.233425
0.442701 -0.043767 0.233425
0.450301 -0.055167 0.210625
0.446501 -0.055167 0.222025
0.454101 -0.043767 0.210625
0.446501 -0.043767 0.222025
0.457901 -0.032367 0.199225
0.457901 -0.020967 0.199225
0.457901 -0.009567 0.199225
0.442701 -0.032367 0.233425
0.442701 -0.020967 0.233425
0.442701 -0.009567 0.233425
0.454101 -0.032367 0.210625
0.454101 -0.020967 0.210625
0.446501 -0.032367 0.222025
0.450301 -0.020967 0.222025
0.454101 -0.009567 0.210625
0.450301 -0.009567 0.222025
0.465501 -0.058967 0.176425
0.461701 -0.055167 0.187825
0.465501 -0.043767 0.176425
0.461701 -0.043767 0.187825
0.461701 -0.032367 0.187825
0.465501 -0.020967 0.187825
0.469301 -0.032367 0.176425
0.469301 -0.020967 0.176425
0.465501 -0.009567 0.187825
0.469301 -0.009567 0.176425
0.431301 -0.062767 0.244825
0.435101 -0.055167 0.244825
0.435101 -0.043767 0.244825
0.435101 -0.032367 0.244825
0.435101 -0.020967 0.244825
0.431301 -0.032367 0.256225
0.431301 -0.020967 0.256225
0.438901 -0.009567 0.244825
0.431301 -0.009567 0.256225
0.252701 -0.245167 0.355025
0.260301 -0.237567 0.355025
0.267901 -0.241367 0.347425
0.271701 -0.237567 0.347425
0.267901 -0.229967 0.355025
0.271701 -0.222367 0.355025
0.298301 -0.245167 0.317025
0.305901 -0.237567 0.317025
0.279301 -0.241367 0.339825
0.286901 -0.233767 0.339825
0.290701 -0.226167 0.339825
0.279301 -0.229967 0.347425
0.286901 -0.222367 0.347425
0.294501 -0.241367 0.328425
0.298301 -0.233767 0.328425
0.298301 -0.218567 0.339825
0.305901 -0.226167 0.328425
0.279301 -0.214767 0.355025
0.283101 -0.207167 0.355025
0.290701 -0.214767 0.347425
0.290701 -0.203367 0.355025
0.302101 -0.210967 0.339825
0.294501 -0.207167 0.347425
0.294501 -0.195767 0.355025
0.298301 -0.188167 0.355025
0.302101 -0.199567 0.347425
0.305901 -0.191967 0.347425
0.248901 -0.237567 0.366425
0.252701 -0.229967 0.366425
0.260301 -0.222367 0.366425
0.252701 -0.218567 0.374025
0.264101 -0.218567 0.366425
0.248901 -0.207167 0.381625
0.256501 -0.210967 0.374025
0.256501 -0.199567 0.381625
0.260301 -0.191967 0.381625
0.271701 -0.210967 0.366425
0.275501 -0.203367 0.366425
0.264101 -0.203367 0.374025
0.267901 -0.199567 0.374025
0.271701 -0.191967 0.374025
0.248901 -0.191967 0.389225
0.252701 -0.188167 0.389225
0.283101 -0.195767 0.366425
0.286901 -0.188167 0.366425
0.302101 -0.180567 0.355025
0.264101 -0.184367 0.381625
0.271701 -0.176767 0.381625
0.275501 -0.172967 0.381625
0.248901 -0.172967 0.400625
0.256501 -0.180567 0.389225
0.260301 -0.172967 0.389225
0.252701 -0.169167 0.400625
0.256501 -0.161567 0.400625
0.267901 -0.165367 0.389225
0.271701 -0.157767 0.389225
0.260301 -0.153967 0.400625
0.248901 -0.153967 0.408225
0.252701 -0.150167 0.408225
0.256501 -0.142567 0.408225
0.248901 -0.138767 0.415825
0.252701 -0.131167 0.415825
0.260301 -0.134967 0.408225
0.264101 -0.146367 0.400625
0.267901 -0.142567 0.400625
0.275501 -0.153967 0.389225
0.271701 -0.134967 0.400625
0.275501 -0.127367 0.400625
0.264101 -0.131167 0.408225
0.290701 -0.180567 0.366425
0.279301 -0.184367 0.374025
0.283101 -0.176767 0.374025
0.279301 -0.165367 0.381625
0.283101 -0.157767 0.381625
0.286901 -0.169167 0.374025
0.290701 -0.161567 0.374025
0.294501 -0.172967 0.366425
0.298301 -0.165367 0.366425
0.305901 -0.157767 0.366425
0.286901 -0.150167 0.381625
0.290701 -0.142567 0.381625
0.294501 -0.153967 0.374025
0.298301 -0.146367 0.374025
0.294501 -0.134967 0.381625
0.298301 -0.127367 0.381625
0.302101 -0.138767 0.374025
0.305901 -0.131167 0.374025
0.279301 -0.146367 0.389225
0.283101 -0.138767 0.389225
0.286901 -0.131167 0.389225
0.313501 -0.241367 0.309425
0.317301 -0.233767 0.309425
0.309701 -0.229967 0.317025
0.317301 -0.222367 0.317025
0.324901 -0.237567 0.298025
0.328701 -0.229967 0.298025
0.324901 -0.226167 0.309425
0.328701 -0.218567 0.309425
0.336301 -0.222367 0.298025
0.309701 -0.218567 0.328425
0.321101 -0.214767 0.317025
0.336301 -0.210967 0.309425
0.328701 -0.203367 0.317025
0.332501 -0.195767 0.317025
0.336301 -0.188167 0.317025
0.309701 -0.203367 0.339825
0.317301 -0.207167 0.328425
0.313501 -0.195767 0.339825
0.321101 -0.199567 0.328425
0.317301 -0.188167 0.339825
0.324901 -0.191967 0.328425
0.340101 -0.214767 0.298025
0.347701 -0.203367 0.298025
0.340101 -0.199567 0.309425
0.343901 -0.191967 0.309425
0.351501 -0.195767 0.298025
0.355301 -0.188167 0.298025
0.309701 -0.184367 0.347425
0.309701 -0.172967 0.355025
0.317301 -0.176767 0.347425
0.313501 -0.161567 0.355025
0.321101 -0.169167 0.347425
0.324901 -0.180567 0.339825
0.328701 -0.172967 0.339825
0.332501 -0.184367 0.328425
0.336301 -0.176767 0.328425
0.332501 -0.161567 0.339825
0.324901 -0.157767 0.347425
0.317301 -0.153967 0.355025
0.321101 -0.146367 0.355025
0.336301 -0.153967 0.339825
0.328701 -0.150167 0.347425
0.332501 -0.142567 0.347425
0.324901 -0.138767 0.355025
0.328701 -0.131167 0.355025
0.336301 -0.134967 0.347425
0.351501 -0.184367 0.309425
0.343901 -0.180567 0.317025
0.347701 -0.169167 0.317025
0.351501 -0.161567 0.317025
0.355301 -0.172967 0.309425
0.362901 -0.176767 0.298025
0.359101 -0.165367 0.309425
0.366701 -0.169167 0.298025
0.340101 -0.165367 0.328425
0.343901 -0.157767 0.328425
0.362901 -0.153967 0.309425
0.366701 -0.146367 0.309425
0.355301 -0.153967 0.317025
0.359101 -0.142567 0.317025
0.362901 -0.134967 0.317025
0.340101 -0.146367 0.339825
0.347701 -0.150167 0.328425
0.343901 -0.134967 0.339825
0.351501 -0.138767 0.328425
0.347701 -0.127367 0.339825
0.355301 -0.131167 0.328425
0.309701 -0.150167 0.366425
0.313501 -0.142567 0.366425
0.313501 -0.134967 0.366425
0.317301 -0.127367 0.366425
0.252701 -0.123567 0.415825
0.256501 -0.119767 0.415825
0.260301 -0.112167 0.415825
0.267901 -0.123567 0.408225
0.271701 -0.115967 0.408225
0.264101 -0.104567 0.415825
0.264101 -0.096967 0.415825
0.271701 -0.108367 0.408225
0.275501 -0.100767 0.408225
0.267901 -0.089367 0.415825
0.271701 -0.085567 0.415825
0.271701 -0.077967 0.415825
0.275501 -0.070367 0.415825
0.302101 -0.119767 0.381625
0.302101 -0.112167 0.381625
0.305901 -0.104567 0.381625
0.279301 -0.119767 0.400625
0.283101 -0.112167 0.400625
0.286901 -0.123567 0.389225
0.290701 -0.115967 0.389225
0.286901 -0.104567 0.400625
0.286901 -0.096967 0.400625
0.294501 -0.108367 0.389225
0.298301 -0.100767 0.389225
0.290701 -0.089367 0.400625
0.290701 -0.081767 0.400625
0.279301 -0.093167 0.408225
0.279301 -0.085567 0.408225
0.283101 -0.081767 0.408225
0.283101 -0.074167 0.408225
0.286901 -0.066567 0.408225
0.298301 -0.093167 0.389225
0.302101 -0.085567 0.389225
0.294501 -0.074167 0.400625
0.294501 -0.066567 0.400625
0.305901 -0.077967 0.389225
0.305901 -0.070367 0.389225
0.275501 -0.062767 0.415825
0.279301 -0.055167 0.415825
0.286901 -0.058967 0.408225
0.290701 -0.051367 0.408225
0.279301 -0.047567 0.415825
0.279301 -0.039967 0.415825
0.279301 -0.036167 0.415825
0.290701 -0.043767 0.408225
0.290701 -0.036167 0.408225
0.298301 -0.058967 0.400625
0.298301 -0.051367 0.400625
0.302101 -0.043767 0.400625
0.302101 -0.036167 0.400625
0.283101 -0.028567 0.415825
0.283101 -0.020967 0.415825
0.290701 -0.028567 0.408225
0.283101 -0.013367 0.415825
0.283101 -0.005767 0.415825
0.302101 -0.028567 0.400625
0.302101 -0.020967 0.400625
0.294501 -0.020967 0.408225
0.302101 -0.013367 0.400625
0.302101 -0.005767 0.400625
0.294501 -0.013367 0.408225
0.294501 -0.005767 0.408225
0.328701 -0.123567 0.355025
0.332501 -0.112167 0.355025
0.336301 -0.104567 0.355025
0.366701 -0.123567 0.317025
0.351501 -0.119767 0.339825
0.340101 -0.123567 0.347425
0.343901 -0.115967 0.347425
0.351501 -0.108367 0.339825
0.343901 -0.108367 0.347425
0.340101 -0.096967 0.355025
0.347701 -0.096967 0.347425
0.359101 -0.123567 0.328425
0.362901 -0.112167 0.328425
0.355301 -0.100767 0.339825
0.362901 -0.104567 0.328425
0.340101 -0.085567 0.355025
0.351501 -0.089367 0.347425
0.351501 -0.081767 0.347425
0.343901 -0.077967 0.355025
0.343901 -0.070367 0.355025
0.359101 -0.093167 0.339825
0.359101 -0.081767 0.339825
0.366701 -0.093167 0.328425
0.362901 -0.074167 0.339825
0.355301 -0.070367 0.347425
0.321101 -0.119767 0.366425
0.309701 -0.123567 0.374025
0.313501 -0.115967 0.374025
0.309701 -0.096967 0.381625
0.317301 -0.108367 0.374025
0.317301 -0.100767 0.374025
0.324901 -0.112167 0.366425
0.328701 -0.100767 0.366425
0.313501 -0.089367 0.381625
0.313501 -0.081767 0.381625
0.321101 -0.089367 0.374025
0.317301 -0.070367 0.381625
0.328701 -0.093167 0.366425
0.332501 -0.085567 0.366425
0.324901 -0.081767 0.374025
0.332501 -0.077967 0.366425
0.336301 -0.066567 0.366425
0.324901 -0.074167 0.374025
0.328701 -0.066567 0.374025
0.347701 -0.058967 0.355025
0.347701 -0.051367 0.355025
0.351501 -0.043767 0.355025
0.362901 -0.062767 0.339825
0.366701 -0.055167 0.339825
0.355301 -0.062767 0.347425
0.359101 -0.055167 0.347425
0.366701 -0.043767 0.339825
0.366701 -0.036167 0.339825
0.359101 -0.043767 0.347425
0.359101 -0.036167 0.347425
0.351501 -0.032367 0.355025
0.351501 -0.024767 0.355025
0.351501 -0.017167 0.355025
0.351501 -0.005767 0.355025
0.359101 -0.024767 0.347425
0.359101 -0.017167 0.347425
0.362901 -0.005767 0.347425
0.317301 -0.062767 0.381625
0.317301 -0.055167 0.381625
0.321101 -0.047567 0.381625
0.321101 -0.039967 0.381625
0.336301 -0.058967 0.366425
0.328701 -0.058967 0.374025
0.328701 -0.047567 0.374025
0.332501 -0.039967 0.374025
0.309701 -0.062767 0.389225
0.309701 -0.055167 0.389225
0.309701 -0.047567 0.389225
0.313501 -0.039967 0.389225
0.321101 -0.032367 0.381625
0.324901 -0.024767 0.381625
0.332501 -0.032367 0.374025
0.332501 -0.024767 0.374025
0.324901 -0.013367 0.381625
0.324901 -0.005767 0.381625
0.332501 -0.013367 0.374025
0.332501 -0.005767 0.374025
0.313501 -0.028567 0.389225
0.313501 -0.020967 0.389225
0.313501 -0.013367 0.389225
0.313501 -0.005767 0.389225
0.340101 -0.051367 0.366425
0.340101 -0.043767 0.366425
0.340101 -0.032367 0.366425
0.343901 -0.024767 0.366425
0.343901 -0.017167 0.366425
0.343901 -0.005767 0.366425
0.248901 -0.112167 0.419625
0.248901 -0.108367 0.419625
0.252701 -0.100767 0.419625
0.248901 -0.085567 0.427225
0.256501 -0.093167 0.419625
0.256501 -0.089367 0.419625
0.260301 -0.081767 0.419625
0.248901 -0.077967 0.427225
0.252701 -0.070367 0.427225
0.252701 -0.066567 0.427225
0.264101 -0.074167 0.419625
0.264101 -0.066567 0.419625
0.256501 -0.058967 0.427225
0.256501 -0.051367 0.427225
0.256501 -0.043767 0.427225
0.260301 -0.039967 0.427225
0.248901 -0.036167 0.434825
0.264101 -0.058967 0.419625
0.267901 -0.055167 0.419625
0.267901 -0.047567 0.419625
0.267901 -0.039967 0.419625
0.260301 -0.032367 0.427225
0.260301 -0.024767 0.427225
0.248901 -0.032367 0.434825
0.248901 -0.024767 0.434825
0.260301 -0.017167 0.427225
0.260301 -0.013367 0.427225
0.260301 -0.005767 0.427225
0.248901 -0.017167 0.434825
0.248901 -0.009567 0.434825
0.248901 -0.005767 0.434825
0.271701 -0.032367 0.419625
0.271701 -0.024767 0.419625
0.271701 -0.020967 0.419625
0.271701 -0.013367 0.419625
0.271701 -0.005767 0.419625
0.370501 -0.157767 0.298025
0.374301 -0.150167 0.298025
0.370501 -0.134967 0.309425
0.374301 -0.127367 0.309425
0.378101 -0.138767 0.298025
0.381901 -0.131167 0.298025
0.378101 -0.115967 0.309425
0.370501 -0.115967 0.317025
0.378101 -0.108367 0.309425
0.381901 -0.096967 0.309425
0.370501 -0.104567 0.317025
0.374301 -0.096967 0.317025
0.385701 -0.119767 0.298025
0.385701 -0.108367 0.298025
0.389501 -0.100767 0.298025
0.378101 -0.085567 0.317025
0.378101 -0.077967 0.317025
0.381901 -0.066567 0.317025
0.385701 -0.089367 0.309425
0.393301 -0.089367 0.298025
0.385701 -0.077967 0.309425
0.389501 -0.066567 0.309425
0.393301 -0.077967 0.298025
0.397101 -0.070367 0.298025
0.370501 -0.085567 0.328425
0.370501 -0.074167 0.328425
0.374301 -0.066567 0.328425
0.381901 -0.055167 0.317025
0.389501 -0.058967 0.309425
0.397101 -0.058967 0.298025
0.393301 -0.047567 0.309425
0.393301 -0.039967 0.309425
0.385701 -0.047567 0.317025
0.385701 -0.036167 0.317025
0.374301 -0.055167 0.328425
0.374301 -0.047567 0.328425
0.378101 -0.036167 0.328425
0.393301 -0.028567 0.309425
0.385701 -0.028567 0.317025
0.393301 -0.017167 0.309425
0.393301 -0.009567 0.309425
0.385701 -0.017167 0.317025
0.385701 -0.005767 0.317025
0.370501 -0.024767 0.339825
0.378101 -0.028567 0.328425
0.370501 -0.017167 0.339825
0.370501 -0.005767 0.339825
0.378101 -0.017167 0.328425
0.378101 -0.005767 0.328425
0.400901 -0.047567 0.298025
0.400901 -0.039967 0.298025
0.400901 -0.028567 0.298025
0.400901 -0.017167 0.298025
0.400901 -0.009567 0.298025
0.005701 -0.001967 0.503225
0.005701 0.001833 0.503225
0.005701 0.005633 0.503225
0.017101 -0.001967 0.503225
0.017101 0.001833 0.503225
0.017101 0.005633 0.503225
0.017101 0.009433 0.503225
0.005701 0.017033 0.503225
0.009501 0.013233 0.503225
0.009501 0.017033 0.503225
0.013301 0.013233 0.503225
0.017101 0.024633 0.499425
0.032301 -0.001967 0.499425
0.032301 0.001833 0.499425
0.028501 0.009433 0.499425
0.032301 0.005633 0.499425
0.032301 0.009433 0.499425
0.024701 0.017033 0.499425
0.020901 0.020833 0.499425
0.020901 0.024633 0.499425
0.024701 0.020833 0.499425
0.028501 0.013233 0.499425
0.028501 0.017033 0.499425
0.005701 0.032233 0.499425
0.009501 0.028433 0.499425
0.009501 0.032233 0.499425
0.013301 0.028433 0.499425
