ply
format ascii 1.0
element vertex 1734
property float x
property float y
property float z
end_header
0.190001 0.009933 -0.448075
0.210001 -0.010067 -0.448075
0.210001 0.009933 -0.448075
0.190001 0.029933 -0.468075
0.190001 0.029933 -0.448075
0.190001 0.049933 -0.468075
0.190001 0.049933 -0.448075
0.210001 0.029933 -0.448075
0.210001 0.049933 -0.448075
0.230001 -0.010067 -0.448075
0.230001 0.009933 -0.448075
0.250001 -0.010067 -0.428075
0.250001 0.009933 -0.428075
0.230001 0.029933 -0.448075
0.230001 0.049933 -0.448075
0.230001 0.049933 -0.428075
0.250001 0.029933 -0.428075
0.250001 0.049933 -0.428075
0.190001 0.069933 -0.448075
0.190001 0.089933 -0.448075
0.210001 0.069933 -0.448075
0.210001 0.089933 -0.448075
0.190001 0.109933 -0.448075
0.190001 0.129933 -0.448075
0.210001 0.109933 -0.448075
0.210001 0.129933 -0.448075
0.210001 0.109933 -0.428075
0.210001 0.129933 -0.428075
0.230001 0.069933 -0.448075
0.230001 0.069933 -0.428075
0.230001 0.089933 -0.428075
0.250001 0.069933 -0.428075
0.250001 0.089933 -0.428075
0.250001 0.089933 -0.408075
0.230001 0.109933 -0.428075
0.230001 0.129933 -0.428075
0.250001 0.109933 -0.428075
0.250001 0.109933 -0.408075
0.250001 0.129933 -0.408075
0.270001 -0.010067 -0.428075
0.270001 -0.010067 -0.408075
0.270001 0.009933 -0.428075
0.270001 0.009933 -0.408075
0.290001 -0.010067 -0.408075
0.290001 0.009933 -0.408075
0.270001 0.029933 -0.428075
0.270001 0.029933 -0.408075
0.270001 0.049933 -0.428075
0.270001 0.049933 -0.408075
0.290001 0.029933 -0.408075
0.290001 0.049933 -0.408075
0.310001 -0.010067 -0.388075
0.310001 0.009933 -0.388075
0.330001 -0.010067 -0.368075
0.330001 0.009933 -0.368075
0.310001 0.029933 -0.388075
0.310001 0.049933 -0.388075
0.330001 0.029933 -0.368075
0.330001 0.049933 -0.368075
0.270001 0.069933 -0.408075
0.270001 0.089933 -0.408075
0.290001 0.069933 -0.408075
0.290001 0.089933 -0.408075
0.270001 0.109933 -0.408075
0.270001 0.129933 -0.408075
0.290001 0.089933 -0.388075
0.270001 0.129933 -0.388075
0.290001 0.109933 -0.388075
0.290001 0.129933 -0.388075
0.310001 0.069933 -0.388075
0.310001 0.069933 -0.368075
0.310001 0.089933 -0.388075
0.310001 0.089933 -0.368075
0.330001 0.069933 -0.368075
0.330001 0.089933 -0.368075
0.330001 0.089933 -0.348075
0.310001 0.109933 -0.388075
0.310001 0.109933 -0.368075
0.310001 0.129933 -0.368075
0.330001 0.109933 -0.368075
0.330001 0.109933 -0.348075
0.330001 0.129933 -0.348075
0.190001 0.149933 -0.448075
0.190001 0.149933 -0.428075
0.190001 0.169933 -0.428075
0.210001 0.149933 -0.428075
0.210001 0.169933 -0.428075
0.210001 0.169933 -0.408075
0.190001 0.189933 -0.428075
0.190001 0.189933 -0.408075
0.190001 0.209933 -0.408075
0.210001 0.189933 -0.408075
0.210001 0.209933 -0.408075
0.230001 0.149933 -0.428075
0.230001 0.149933 -0.408075
0.230001 0.169933 -0.408075
0.250001 0.149933 -0.408075
0.250001 0.169933 -0.408075
0.230001 0.189933 -0.408075
0.250001 0.169933 -0.388075
0.230001 0.189933 -0.388075
0.230001 0.209933 -0.388075
0.250001 0.189933 -0.388075
0.250001 0.209933 -0.388075
0.250001 0.209933 -0.368075
0.190001 0.229933 -0.408075
0.210001 0.229933 -0.408075
0.190001 0.229933 -0.388075
0.190001 0.249933 -0.388075
0.210001 0.229933 -0.388075
0.210001 0.249933 -0.388075
0.210001 0.249933 -0.368075
0.190001 0.269933 -0.388075
0.190001 0.269933 -0.368075
0.190001 0.289933 -0.368075
0.210001 0.269933 -0.368075
0.190001 0.289933 -0.348075
0.210001 0.269933 -0.348075
0.210001 0.289933 -0.348075
0.230001 0.229933 -0.388075
0.230001 0.229933 -0.368075
0.230001 0.249933 -0.368075
0.250001 0.229933 -0.368075
0.230001 0.249933 -0.348075
0.250001 0.229933 -0.348075
0.250001 0.249933 -0.348075
0.230001 0.269933 -0.348075
0.230001 0.289933 -0.348075
0.230001 0.289933 -0.328075
0.250001 0.269933 -0.348075
0.250001 0.269933 -0.328075
0.250001 0.289933 -0.328075
0.270001 0.149933 -0.408075
0.270001 0.149933 -0.388075
0.270001 0.169933 -0.388075
0.270001 0.169933 -0.368075
0.290001 0.149933 -0.388075
0.290001 0.149933 -0.368075
0.290001 0.169933 -0.368075
0.270001 0.189933 -0.368075
0.270001 0.209933 -0.368075
0.290001 0.189933 -0.368075
0.270001 0.209933 -0.348075
0.290001 0.189933 -0.348075
0.290001 0.209933 -0.348075
0.310001 0.149933 -0.368075
0.310001 0.149933 -0.348075
0.310001 0.169933 -0.348075
0.330001 0.149933 -0.348075
0.330001 0.169933 -0.348075
0.330001 0.169933 -0.328075
0.310001 0.189933 -0.348075
0.310001 0.209933 -0.348075
0.310001 0.209933 -0.328075
0.330001 0.189933 -0.328075
0.330001 0.209933 -0.328075
0.270001 0.229933 -0.348075
0.270001 0.249933 -0.348075
0.270001 0.249933 -0.328075
0.290001 0.229933 -0.348075
0.290001 0.229933 -0.328075
0.290001 0.249933 -0.328075
0.270001 0.269933 -0.328075
0.290001 0.269933 -0.328075
0.310001 0.229933 -0.328075
0.030001 0.309933 -0.388075
0.030001 0.329933 -0.368075
0.050001 0.309933 -0.388075
0.050001 0.329933 -0.368075
0.030001 0.349933 -0.348075
0.030001 0.369933 -0.348075
0.030001 0.369933 -0.328075
0.050001 0.349933 -0.348075
0.050001 0.369933 -0.348075
0.050001 0.369933 -0.328075
0.070001 0.309933 -0.388075
0.070001 0.329933 -0.368075
0.090001 0.309933 -0.388075
0.090001 0.309933 -0.368075
0.090001 0.329933 -0.368075
0.070001 0.329933 -0.348075
0.090001 0.329933 -0.348075
0.070001 0.349933 -0.348075
0.070001 0.369933 -0.328075
0.090001 0.349933 -0.348075
0.090001 0.369933 -0.328075
0.030001 0.389933 -0.328075
0.110001 0.309933 -0.388075
0.110001 0.309933 -0.368075
0.110001 0.329933 -0.368075
0.130001 0.309933 -0.368075
0.110001 0.329933 -0.348075
0.130001 0.309933 -0.348075
0.130001 0.329933 -0.348075
0.110001 0.349933 -0.348075
0.110001 0.349933 -0.328075
0.110001 0.369933 -0.328075
0.130001 0.349933 -0.348075
0.130001 0.349933 -0.328075
0.130001 0.369933 -0.328075
0.150001 0.309933 -0.368075
0.150001 0.309933 -0.348075
0.150001 0.329933 -0.348075
0.150001 0.329933 -0.328075
0.170001 0.309933 -0.348075
0.170001 0.329933 -0.348075
0.170001 0.329933 -0.328075
0.150001 0.349933 -0.328075
0.170001 0.349933 -0.328075
0.190001 0.309933 -0.348075
0.190001 0.329933 -0.328075
0.210001 0.309933 -0.348075
0.210001 0.309933 -0.328075
0.210001 0.329933 -0.328075
0.230001 0.309933 -0.328075
0.350001 -0.010067 -0.348075
0.350001 0.009933 -0.348075
0.370001 -0.010067 -0.348075
0.370001 -0.010067 -0.328075
0.370001 0.009933 -0.348075
0.370001 0.009933 -0.328075
0.350001 0.029933 -0.348075
0.350001 0.049933 -0.348075
0.370001 0.029933 -0.348075
0.370001 0.029933 -0.328075
0.370001 0.049933 -0.348075
0.370001 0.049933 -0.328075
0.390001 -0.010067 -0.328075
0.390001 0.009933 -0.328075
0.390001 0.029933 -0.328075
0.390001 0.049933 -0.328075
0.350001 0.069933 -0.348075
0.350001 0.089933 -0.348075
0.370001 0.069933 -0.328075
0.370001 0.089933 -0.328075
0.350001 0.109933 -0.348075
0.350001 0.109933 -0.328075
0.350001 0.129933 -0.348075
0.350001 0.129933 -0.328075
0.370001 0.109933 -0.328075
0.370001 0.129933 -0.328075
0.350001 0.149933 -0.328075
0.350001 0.169933 -0.328075
0.250001 0.289933 -0.308075
0.330001 0.189933 -0.308075
0.330001 0.209933 -0.308075
0.290001 0.249933 -0.308075
0.270001 0.269933 -0.308075
0.270001 0.289933 -0.308075
0.270001 0.289933 -0.288075
0.290001 0.269933 -0.308075
0.290001 0.269933 -0.288075
0.290001 0.289933 -0.288075
0.310001 0.229933 -0.308075
0.310001 0.249933 -0.308075
0.310001 0.249933 -0.288075
0.330001 0.229933 -0.308075
0.330001 0.229933 -0.288075
0.330001 0.249933 -0.288075
0.330001 0.249933 -0.268075
0.310001 0.269933 -0.288075
0.310001 0.289933 -0.288075
0.310001 0.269933 -0.268075
0.310001 0.289933 -0.268075
0.310001 0.289933 -0.248075
0.330001 0.269933 -0.268075
0.330001 0.269933 -0.248075
0.330001 0.289933 -0.248075
0.330001 0.289933 -0.228075
0.330001 0.289933 -0.208075
0.250001 0.289933 0.311925
0.330001 0.189933 0.311925
0.330001 0.209933 0.291925
0.330001 0.209933 0.311925
0.330001 0.289933 0.231925
0.290001 0.249933 0.311925
0.290001 0.289933 0.271925
0.270001 0.269933 0.311925
0.270001 0.289933 0.291925
0.270001 0.289933 0.311925
0.290001 0.269933 0.291925
0.290001 0.269933 0.311925
0.290001 0.289933 0.291925
0.330001 0.249933 0.271925
0.310001 0.229933 0.311925
0.310001 0.249933 0.291925
0.310001 0.249933 0.311925
0.330001 0.229933 0.291925
0.330001 0.229933 0.311925
0.330001 0.249933 0.291925
0.310001 0.269933 0.271925
0.310001 0.289933 0.251925
0.310001 0.289933 0.271925
0.330001 0.269933 0.251925
0.330001 0.269933 0.271925
0.330001 0.289933 0.251925
0.310001 0.269933 0.291925
0.090001 0.369933 -0.308075
0.030001 0.389933 -0.308075
0.030001 0.409933 -0.288075
0.050001 0.389933 -0.308075
0.050001 0.409933 -0.288075
0.030001 0.409933 -0.268075
0.050001 0.409933 -0.268075
0.030001 0.429933 -0.268075
0.030001 0.429933 -0.248075
0.050001 0.429933 -0.248075
0.070001 0.389933 -0.308075
0.070001 0.389933 -0.288075
0.070001 0.409933 -0.288075
0.090001 0.389933 -0.308075
0.090001 0.389933 -0.288075
0.090001 0.409933 -0.288075
0.070001 0.409933 -0.268075
0.090001 0.409933 -0.268075
0.090001 0.409933 -0.248075
0.070001 0.429933 -0.248075
0.090001 0.429933 -0.248075
0.030001 0.429933 -0.228075
0.030001 0.449933 -0.228075
0.030001 0.449933 -0.208075
0.050001 0.429933 -0.228075
0.050001 0.449933 -0.228075
0.050001 0.449933 -0.208075
0.050001 0.449933 -0.188075
0.070001 0.429933 -0.228075
0.070001 0.449933 -0.228075
0.070001 0.449933 -0.208075
0.090001 0.429933 -0.228075
0.090001 0.449933 -0.208075
0.070001 0.449933 -0.188075
0.090001 0.449933 -0.188075
0.090001 0.449933 -0.168075
0.110001 0.369933 -0.308075
0.130001 0.369933 -0.308075
0.150001 0.349933 -0.308075
0.150001 0.369933 -0.308075
0.150001 0.369933 -0.288075
0.170001 0.349933 -0.308075
0.170001 0.369933 -0.308075
0.170001 0.369933 -0.288075
0.110001 0.389933 -0.308075
0.110001 0.389933 -0.288075
0.110001 0.409933 -0.288075
0.130001 0.389933 -0.308075
0.130001 0.389933 -0.288075
0.110001 0.409933 -0.268075
0.110001 0.409933 -0.248075
0.130001 0.389933 -0.268075
0.130001 0.409933 -0.268075
0.130001 0.409933 -0.248075
0.150001 0.389933 -0.288075
0.150001 0.389933 -0.268075
0.150001 0.409933 -0.248075
0.170001 0.389933 -0.268075
0.170001 0.389933 -0.248075
0.170001 0.409933 -0.248075
0.130001 0.409933 -0.228075
0.110001 0.429933 -0.228075
0.110001 0.429933 -0.208075
0.110001 0.449933 -0.208075
0.130001 0.429933 -0.228075
0.130001 0.429933 -0.208075
0.110001 0.449933 -0.188075
0.110001 0.449933 -0.168075
0.130001 0.449933 -0.188075
0.130001 0.449933 -0.168075
0.150001 0.409933 -0.228075
0.170001 0.409933 -0.228075
0.170001 0.409933 -0.208075
0.150001 0.429933 -0.228075
0.150001 0.429933 -0.208075
0.170001 0.429933 -0.208075
0.150001 0.429933 -0.188075
0.150001 0.449933 -0.188075
0.150001 0.449933 -0.168075
0.170001 0.429933 -0.188075
0.170001 0.429933 -0.168075
0.170001 0.449933 -0.168075
0.130001 0.449933 -0.148075
0.150001 0.449933 -0.148075
0.150001 0.449933 -0.128075
0.170001 0.449933 -0.148075
0.170001 0.449933 -0.128075
0.150001 0.449933 -0.108075
0.170001 0.449933 -0.108075
0.030001 0.469933 -0.188075
0.030001 0.469933 -0.168075
0.050001 0.469933 -0.168075
0.070001 0.469933 -0.168075
0.090001 0.469933 -0.168075
0.030001 0.469933 -0.148075
0.030001 0.489933 -0.128075
0.050001 0.469933 -0.148075
0.050001 0.489933 -0.128075
0.030001 0.489933 -0.108075
0.030001 0.489933 -0.088075
0.050001 0.489933 -0.108075
0.050001 0.489933 -0.088075
0.070001 0.469933 -0.148075
0.070001 0.469933 -0.128075
0.090001 0.469933 -0.148075
0.090001 0.469933 -0.128075
0.070001 0.489933 -0.108075
0.070001 0.489933 -0.088075
0.090001 0.469933 -0.108075
0.090001 0.489933 -0.108075
0.090001 0.489933 -0.088075
0.030001 0.489933 -0.068075
0.030001 0.489933 -0.048075
0.050001 0.489933 -0.068075
0.050001 0.489933 -0.048075
0.030001 0.489933 -0.028075
0.030001 0.489933 -0.008075
0.050001 0.489933 -0.028075
0.050001 0.489933 -0.008075
0.070001 0.489933 -0.068075
0.070001 0.489933 -0.048075
0.090001 0.489933 -0.068075
0.090001 0.489933 -0.048075
0.070001 0.489933 -0.028075
0.070001 0.489933 -0.008075
0.090001 0.489933 -0.028075
0.090001 0.489933 -0.008075
0.110001 0.469933 -0.148075
0.110001 0.469933 -0.128075
0.130001 0.469933 -0.148075
0.130001 0.469933 -0.128075
0.110001 0.469933 -0.108075
0.110001 0.469933 -0.088075
0.110001 0.489933 -0.088075
0.130001 0.469933 -0.108075
0.130001 0.469933 -0.088075
0.150001 0.469933 -0.128075
0.150001 0.469933 -0.108075
0.150001 0.469933 -0.088075
0.170001 0.469933 -0.108075
0.170001 0.469933 -0.088075
0.110001 0.489933 -0.068075
0.110001 0.489933 -0.048075
0.130001 0.469933 -0.068075
0.130001 0.469933 -0.048075
0.130001 0.489933 -0.048075
0.110001 0.489933 -0.028075
0.110001 0.489933 -0.008075
0.130001 0.469933 -0.028075
0.130001 0.469933 -0.008075
0.130001 0.489933 -0.028075
0.130001 0.489933 -0.008075
0.150001 0.469933 -0.068075
0.150001 0.469933 -0.048075
0.170001 0.469933 -0.068075
0.170001 0.469933 -0.048075
0.150001 0.469933 -0.028075
0.150001 0.469933 -0.008075
0.170001 0.469933 -0.028075
0.170001 0.469933 -0.008075
0.210001 0.329933 -0.308075
0.190001 0.349933 -0.308075
0.190001 0.349933 -0.288075
0.190001 0.369933 -0.288075
0.210001 0.349933 -0.308075
0.210001 0.349933 -0.288075
0.210001 0.369933 -0.288075
0.190001 0.369933 -0.268075
0.210001 0.369933 -0.268075
0.210001 0.369933 -0.248075
0.230001 0.309933 -0.308075
0.230001 0.329933 -0.308075
0.230001 0.329933 -0.288075
0.250001 0.309933 -0.308075
0.250001 0.309933 -0.288075
0.250001 0.329933 -0.288075
0.250001 0.329933 -0.268075
0.230001 0.349933 -0.288075
0.230001 0.349933 -0.268075
0.230001 0.349933 -0.248075
0.230001 0.369933 -0.248075
0.250001 0.349933 -0.268075
0.250001 0.349933 -0.248075
0.250001 0.369933 -0.248075
0.230001 0.369933 -0.228075
0.250001 0.349933 -0.228075
0.250001 0.369933 -0.228075
0.250001 0.369933 -0.208075
0.190001 0.389933 -0.248075
0.210001 0.389933 -0.248075
0.190001 0.389933 -0.228075
0.190001 0.409933 -0.228075
0.190001 0.409933 -0.208075
0.210001 0.389933 -0.228075
0.210001 0.389933 -0.208075
0.210001 0.409933 -0.208075
0.190001 0.409933 -0.188075
0.210001 0.409933 -0.188075
0.210001 0.409933 -0.168075
0.190001 0.429933 -0.188075
0.190001 0.429933 -0.168075
0.210001 0.429933 -0.168075
0.230001 0.389933 -0.228075
0.230001 0.389933 -0.208075
0.250001 0.389933 -0.208075
0.230001 0.389933 -0.188075
0.230001 0.409933 -0.188075
0.230001 0.409933 -0.168075
0.250001 0.389933 -0.188075
0.250001 0.389933 -0.168075
0.250001 0.409933 -0.168075
0.270001 0.309933 -0.308075
0.270001 0.309933 -0.288075
0.290001 0.309933 -0.288075
0.270001 0.309933 -0.268075
0.270001 0.329933 -0.268075
0.270001 0.329933 -0.248075
0.290001 0.309933 -0.268075
0.290001 0.309933 -0.248075
0.290001 0.329933 -0.248075
0.270001 0.349933 -0.248075
0.310001 0.309933 -0.248075
0.290001 0.329933 -0.228075
0.270001 0.349933 -0.228075
0.270001 0.349933 -0.208075
0.270001 0.369933 -0.208075
0.290001 0.349933 -0.228075
0.290001 0.349933 -0.208075
0.270001 0.369933 -0.188075
0.270001 0.369933 -0.168075
0.290001 0.349933 -0.188075
0.290001 0.349933 -0.168075
0.290001 0.369933 -0.188075
0.290001 0.369933 -0.168075
0.310001 0.309933 -0.228075
0.310001 0.329933 -0.228075
0.310001 0.329933 -0.208075
0.330001 0.309933 -0.228075
0.330001 0.309933 -0.208075
0.330001 0.329933 -0.208075
0.330001 0.309933 -0.188075
0.330001 0.329933 -0.188075
0.330001 0.329933 -0.168075
0.310001 0.349933 -0.208075
0.310001 0.349933 -0.188075
0.310001 0.349933 -0.168075
0.310001 0.369933 -0.168075
0.270001 0.389933 -0.168075
0.190001 0.429933 -0.148075
0.190001 0.449933 -0.128075
0.210001 0.429933 -0.148075
0.210001 0.429933 -0.128075
0.190001 0.449933 -0.108075
0.190001 0.449933 -0.088075
0.210001 0.429933 -0.108075
0.210001 0.429933 -0.088075
0.210001 0.449933 -0.108075
0.210001 0.449933 -0.088075
0.230001 0.409933 -0.148075
0.250001 0.409933 -0.148075
0.250001 0.409933 -0.128075
0.250001 0.409933 -0.108075
0.230001 0.429933 -0.148075
0.230001 0.429933 -0.128075
0.230001 0.429933 -0.108075
0.230001 0.429933 -0.088075
0.250001 0.429933 -0.088075
0.190001 0.449933 -0.068075
0.190001 0.449933 -0.048075
0.210001 0.449933 -0.068075
0.210001 0.449933 -0.048075
0.190001 0.449933 -0.028075
0.190001 0.449933 -0.008075
0.210001 0.449933 -0.028075
0.210001 0.449933 -0.008075
0.230001 0.429933 -0.068075
0.230001 0.429933 -0.048075
0.230001 0.449933 -0.068075
0.230001 0.449933 -0.048075
0.250001 0.429933 -0.068075
0.250001 0.429933 -0.048075
0.230001 0.449933 -0.028075
0.230001 0.449933 -0.008075
0.250001 0.429933 -0.028075
0.250001 0.429933 -0.008075
0.290001 0.369933 -0.148075
0.290001 0.369933 -0.128075
0.330001 0.329933 -0.148075
0.310001 0.349933 -0.148075
0.310001 0.369933 -0.148075
0.310001 0.369933 -0.128075
0.330001 0.349933 -0.148075
0.330001 0.349933 -0.128075
0.310001 0.369933 -0.108075
0.310001 0.369933 -0.088075
0.330001 0.349933 -0.108075
0.330001 0.369933 -0.108075
0.330001 0.369933 -0.088075
0.310001 0.369933 -0.068075
0.330001 0.369933 -0.068075
0.330001 0.369933 -0.048075
0.330001 0.369933 -0.028075
0.330001 0.369933 -0.008075
0.270001 0.389933 -0.148075
0.270001 0.389933 -0.128075
0.270001 0.409933 -0.128075
0.290001 0.389933 -0.148075
0.290001 0.389933 -0.128075
0.270001 0.409933 -0.108075
0.270001 0.409933 -0.088075
0.290001 0.389933 -0.108075
0.290001 0.389933 -0.088075
0.290001 0.409933 -0.088075
0.310001 0.389933 -0.108075
0.310001 0.389933 -0.088075
0.270001 0.409933 -0.068075
0.270001 0.409933 -0.048075
0.290001 0.389933 -0.068075
0.290001 0.389933 -0.048075
0.290001 0.409933 -0.068075
0.290001 0.409933 -0.048075
0.270001 0.409933 -0.028075
0.270001 0.409933 -0.008075
0.290001 0.409933 -0.028075
0.290001 0.409933 -0.008075
0.270001 0.429933 -0.048075
0.270001 0.429933 -0.028075
0.270001 0.429933 -0.008075
0.310001 0.389933 -0.068075
0.310001 0.389933 -0.048075
0.310001 0.389933 -0.028075
0.310001 0.389933 -0.008075
0.190001 0.469933 -0.048075
0.190001 0.469933 -0.028075
0.190001 0.469933 -0.008075
0.130001 0.449933 0.151925
0.170001 0.449933 0.091925
0.170001 0.449933 0.111925
0.150001 0.449933 0.131925
0.150001 0.449933 0.151925
0.170001 0.449933 0.131925
0.170001 0.449933 0.151925
0.070001 0.369933 0.311925
0.090001 0.369933 0.311925
0.030001 0.449933 0.191925
0.050001 0.449933 0.191925
0.030001 0.449933 0.211925
0.030001 0.449933 0.231925
0.050001 0.429933 0.231925
0.050001 0.449933 0.211925
0.050001 0.449933 0.231925
0.070001 0.449933 0.191925
0.090001 0.449933 0.171925
0.090001 0.449933 0.191925
0.070001 0.429933 0.231925
0.070001 0.449933 0.211925
0.070001 0.449933 0.231925
0.090001 0.429933 0.231925
0.090001 0.449933 0.211925
0.090001 0.449933 0.231925
0.030001 0.409933 0.271925
0.050001 0.409933 0.271925
0.030001 0.389933 0.311925
0.030001 0.409933 0.291925
0.050001 0.389933 0.291925
0.050001 0.389933 0.311925
0.050001 0.409933 0.291925
0.030001 0.429933 0.251925
0.030001 0.429933 0.271925
0.050001 0.429933 0.251925
0.050001 0.429933 0.271925
0.070001 0.409933 0.271925
0.090001 0.409933 0.251925
0.090001 0.409933 0.271925
0.070001 0.389933 0.291925
0.070001 0.389933 0.311925
0.070001 0.409933 0.291925
0.090001 0.389933 0.291925
0.090001 0.389933 0.311925
0.090001 0.409933 0.291925
0.070001 0.429933 0.251925
0.090001 0.429933 0.251925
0.110001 0.369933 0.311925
0.130001 0.369933 0.311925
0.170001 0.369933 0.271925
0.150001 0.349933 0.311925
0.150001 0.369933 0.291925
0.150001 0.369933 0.311925
0.170001 0.349933 0.311925
0.170001 0.369933 0.291925
0.110001 0.449933 0.171925
0.110001 0.449933 0.191925
0.130001 0.429933 0.191925
0.130001 0.449933 0.171925
0.130001 0.449933 0.191925
0.110001 0.429933 0.211925
0.110001 0.429933 0.231925
0.110001 0.449933 0.211925
0.130001 0.429933 0.211925
0.130001 0.429933 0.231925
0.150001 0.409933 0.231925
0.170001 0.409933 0.231925
0.150001 0.429933 0.191925
0.150001 0.449933 0.171925
0.150001 0.449933 0.191925
0.170001 0.429933 0.171925
0.170001 0.429933 0.191925
0.170001 0.449933 0.171925
0.150001 0.429933 0.211925
0.150001 0.429933 0.231925
0.170001 0.429933 0.211925
0.110001 0.409933 0.251925
0.110001 0.409933 0.271925
0.130001 0.389933 0.271925
0.130001 0.409933 0.251925
0.130001 0.409933 0.271925
0.110001 0.389933 0.291925
0.110001 0.389933 0.311925
0.130001 0.389933 0.291925
0.110001 0.429933 0.251925
0.150001 0.389933 0.271925
0.150001 0.409933 0.251925
0.170001 0.389933 0.251925
0.170001 0.389933 0.271925
0.170001 0.409933 0.251925
0.150001 0.389933 0.291925
0.030001 0.489933 0.011925
0.030001 0.489933 0.031925
0.050001 0.489933 0.011925
0.050001 0.489933 0.031925
0.030001 0.489933 0.051925
0.030001 0.489933 0.071925
0.050001 0.489933 0.051925
0.050001 0.489933 0.071925
0.070001 0.489933 0.011925
0.070001 0.489933 0.031925
0.090001 0.489933 0.011925
0.090001 0.489933 0.031925
0.070001 0.489933 0.051925
0.070001 0.489933 0.071925
0.090001 0.489933 0.051925
0.090001 0.489933 0.071925
0.030001 0.489933 0.091925
0.030001 0.489933 0.111925
0.050001 0.489933 0.091925
0.050001 0.489933 0.111925
0.030001 0.469933 0.131925
0.030001 0.469933 0.151925
0.030001 0.489933 0.131925
0.050001 0.469933 0.131925
0.050001 0.469933 0.151925
0.050001 0.489933 0.131925
0.070001 0.489933 0.091925
0.070001 0.489933 0.111925
0.090001 0.469933 0.091925
0.090001 0.469933 0.111925
0.090001 0.489933 0.091925
0.070001 0.469933 0.131925
0.070001 0.469933 0.151925
0.070001 0.489933 0.131925
0.090001 0.469933 0.131925
0.090001 0.469933 0.151925
0.110001 0.489933 0.011925
0.110001 0.489933 0.031925
0.130001 0.469933 0.031925
0.130001 0.489933 0.011925
0.130001 0.489933 0.031925
0.110001 0.489933 0.051925
0.110001 0.489933 0.071925
0.130001 0.469933 0.051925
0.130001 0.469933 0.071925
0.130001 0.489933 0.051925
0.130001 0.489933 0.071925
0.150001 0.469933 0.011925
0.150001 0.469933 0.031925
0.170001 0.469933 0.011925
0.170001 0.469933 0.031925
0.150001 0.469933 0.051925
0.150001 0.469933 0.071925
0.170001 0.469933 0.051925
0.170001 0.469933 0.071925
0.110001 0.469933 0.091925
0.110001 0.469933 0.111925
0.110001 0.489933 0.091925
0.130001 0.469933 0.091925
0.130001 0.469933 0.111925
0.110001 0.469933 0.131925
0.110001 0.469933 0.151925
0.130001 0.469933 0.131925
0.130001 0.469933 0.151925
0.150001 0.469933 0.091925
0.150001 0.469933 0.111925
0.170001 0.469933 0.091925
0.150001 0.469933 0.131925
0.030001 0.469933 0.171925
0.030001 0.469933 0.191925
0.050001 0.469933 0.171925
0.050001 0.469933 0.191925
0.070001 0.469933 0.171925
0.090001 0.469933 0.171925
0.110001 0.469933 0.171925
0.190001 0.449933 0.011925
0.190001 0.449933 0.031925
0.210001 0.449933 0.011925
0.210001 0.449933 0.031925
0.190001 0.449933 0.051925
0.190001 0.449933 0.071925
0.210001 0.449933 0.051925
0.210001 0.449933 0.071925
0.230001 0.449933 0.011925
0.230001 0.449933 0.031925
0.250001 0.429933 0.011925
0.250001 0.429933 0.031925
0.230001 0.429933 0.051925
0.230001 0.429933 0.071925
0.230001 0.449933 0.051925
0.230001 0.449933 0.071925
0.250001 0.429933 0.051925
0.250001 0.429933 0.071925
0.190001 0.449933 0.091925
0.190001 0.449933 0.111925
0.210001 0.429933 0.091925
0.210001 0.429933 0.111925
0.210001 0.449933 0.091925
0.210001 0.449933 0.111925
0.190001 0.429933 0.151925
0.190001 0.449933 0.131925
0.210001 0.429933 0.131925
0.210001 0.429933 0.151925
0.250001 0.409933 0.111925
0.230001 0.409933 0.131925
0.230001 0.409933 0.151925
0.250001 0.409933 0.131925
0.250001 0.409933 0.151925
0.230001 0.429933 0.091925
0.230001 0.429933 0.111925
0.250001 0.429933 0.091925
0.230001 0.429933 0.131925
0.230001 0.429933 0.151925
0.330001 0.369933 0.011925
0.330001 0.369933 0.031925
0.330001 0.369933 0.051925
0.330001 0.369933 0.071925
0.290001 0.369933 0.131925
0.290001 0.369933 0.151925
0.310001 0.369933 0.091925
0.310001 0.369933 0.111925
0.330001 0.349933 0.111925
0.330001 0.369933 0.091925
0.330001 0.369933 0.111925
0.310001 0.349933 0.151925
0.310001 0.369933 0.131925
0.310001 0.369933 0.151925
0.330001 0.349933 0.131925
0.330001 0.349933 0.151925
0.270001 0.409933 0.011925
0.270001 0.409933 0.031925
0.290001 0.389933 0.031925
0.290001 0.409933 0.011925
0.290001 0.409933 0.031925
0.270001 0.409933 0.051925
0.270001 0.409933 0.071925
0.290001 0.389933 0.051925
0.290001 0.389933 0.071925
0.290001 0.409933 0.051925
0.290001 0.409933 0.071925
0.270001 0.429933 0.011925
0.270001 0.429933 0.031925
0.270001 0.429933 0.051925
0.310001 0.389933 0.011925
0.310001 0.389933 0.031925
0.310001 0.389933 0.051925
0.310001 0.389933 0.071925
0.270001 0.409933 0.091925
0.270001 0.409933 0.111925
0.290001 0.389933 0.091925
0.290001 0.389933 0.111925
0.290001 0.409933 0.091925
0.270001 0.389933 0.131925
0.270001 0.389933 0.151925
0.270001 0.409933 0.131925
0.290001 0.389933 0.131925
0.290001 0.389933 0.151925
0.310001 0.389933 0.091925
0.310001 0.389933 0.111925
0.230001 0.369933 0.231925
0.250001 0.369933 0.211925
0.250001 0.369933 0.231925
0.190001 0.329933 0.311925
0.210001 0.329933 0.311925
0.190001 0.369933 0.271925
0.210001 0.349933 0.271925
0.210001 0.369933 0.251925
0.210001 0.369933 0.271925
0.190001 0.349933 0.291925
0.190001 0.349933 0.311925
0.190001 0.369933 0.291925
0.210001 0.349933 0.291925
0.250001 0.329933 0.271925
0.230001 0.309933 0.311925
0.230001 0.329933 0.291925
0.230001 0.329933 0.311925
0.250001 0.309933 0.291925
0.250001 0.309933 0.311925
0.250001 0.329933 0.291925
0.230001 0.349933 0.251925
0.230001 0.349933 0.271925
0.230001 0.369933 0.251925
0.250001 0.349933 0.251925
0.250001 0.349933 0.271925
0.250001 0.369933 0.251925
0.230001 0.349933 0.291925
0.190001 0.409933 0.191925
0.210001 0.409933 0.171925
0.210001 0.409933 0.191925
0.190001 0.389933 0.231925
0.190001 0.409933 0.211925
0.190001 0.409933 0.231925
0.210001 0.389933 0.231925
0.210001 0.409933 0.211925
0.210001 0.409933 0.231925
0.190001 0.429933 0.171925
0.190001 0.429933 0.191925
0.210001 0.429933 0.171925
0.230001 0.389933 0.191925
0.230001 0.409933 0.171925
0.230001 0.409933 0.191925
0.250001 0.389933 0.171925
0.250001 0.389933 0.191925
0.250001 0.409933 0.171925
0.230001 0.389933 0.211925
0.230001 0.389933 0.231925
0.250001 0.389933 0.211925
0.190001 0.389933 0.251925
0.210001 0.389933 0.251925
0.290001 0.329933 0.231925
0.270001 0.369933 0.191925
0.290001 0.349933 0.191925
0.290001 0.369933 0.171925
0.290001 0.369933 0.191925
0.270001 0.349933 0.231925
0.270001 0.369933 0.211925
0.290001 0.349933 0.211925
0.290001 0.349933 0.231925
0.310001 0.329933 0.191925
0.330001 0.309933 0.191925
0.330001 0.329933 0.171925
0.330001 0.329933 0.191925
0.310001 0.309933 0.231925
0.310001 0.329933 0.211925
0.310001 0.329933 0.231925
0.330001 0.309933 0.211925
0.330001 0.309933 0.231925
0.310001 0.349933 0.171925
0.310001 0.349933 0.191925
0.310001 0.369933 0.171925
0.330001 0.349933 0.171925
0.270001 0.309933 0.271925
0.270001 0.329933 0.251925
0.270001 0.329933 0.271925
0.290001 0.309933 0.251925
0.290001 0.309933 0.271925
0.290001 0.329933 0.251925
0.270001 0.309933 0.291925
0.270001 0.349933 0.251925
0.310001 0.309933 0.251925
0.270001 0.389933 0.171925
0.190001 0.469933 0.011925
0.190001 0.469933 0.031925
0.190001 0.469933 0.051925
0.390001 -0.010067 -0.308075
0.390001 0.009933 -0.308075
0.410001 -0.010067 -0.288075
0.410001 0.009933 -0.288075
0.390001 0.029933 -0.308075
0.390001 0.049933 -0.308075
0.410001 0.029933 -0.288075
0.410001 0.049933 -0.288075
0.410001 0.029933 -0.268075
0.410001 0.049933 -0.268075
0.370001 0.109933 -0.308075
0.370001 0.129933 -0.308075
0.390001 0.069933 -0.308075
0.390001 0.069933 -0.288075
0.390001 0.089933 -0.308075
0.390001 0.089933 -0.288075
0.410001 0.069933 -0.288075
0.410001 0.089933 -0.288075
0.410001 0.069933 -0.268075
0.410001 0.089933 -0.268075
0.410001 0.089933 -0.248075
0.390001 0.109933 -0.308075
0.390001 0.109933 -0.288075
0.390001 0.129933 -0.288075
0.410001 0.109933 -0.268075
0.410001 0.109933 -0.248075
0.410001 0.129933 -0.268075
0.410001 0.129933 -0.248075
0.410001 0.129933 -0.228075
0.430001 -0.010067 -0.268075
0.430001 -0.010067 -0.248075
0.430001 0.009933 -0.268075
0.430001 0.009933 -0.248075
0.430001 0.029933 -0.268075
0.430001 0.029933 -0.248075
0.430001 0.049933 -0.248075
0.430001 -0.010067 -0.228075
0.450001 -0.010067 -0.228075
0.450001 -0.010067 -0.208075
0.450001 0.009933 -0.228075
0.450001 0.009933 -0.208075
0.430001 0.029933 -0.228075
0.430001 0.049933 -0.228075
0.450001 0.029933 -0.228075
0.450001 0.029933 -0.208075
0.450001 0.049933 -0.228075
0.450001 0.049933 -0.208075
0.450001 0.049933 -0.188075
0.470001 -0.010067 -0.188075
0.470001 -0.010067 -0.168075
0.470001 0.009933 -0.188075
0.470001 0.009933 -0.168075
0.470001 0.029933 -0.188075
0.470001 0.029933 -0.168075
0.470001 0.049933 -0.168075
0.430001 0.069933 -0.248075
0.430001 0.089933 -0.248075
0.430001 0.109933 -0.248075
0.430001 0.069933 -0.228075
0.430001 0.089933 -0.228075
0.450001 0.069933 -0.228075
0.450001 0.069933 -0.208075
0.450001 0.089933 -0.208075
0.450001 0.069933 -0.188075
0.450001 0.089933 -0.188075
0.450001 0.089933 -0.168075
0.430001 0.109933 -0.228075
0.430001 0.109933 -0.208075
0.430001 0.129933 -0.228075
0.430001 0.129933 -0.208075
0.450001 0.109933 -0.208075
0.450001 0.109933 -0.188075
0.450001 0.109933 -0.168075
0.450001 0.129933 -0.188075
0.450001 0.129933 -0.168075
0.470001 0.069933 -0.168075
0.470001 0.089933 -0.168075
0.470001 -0.010067 -0.148075
0.470001 0.009933 -0.148075
0.490001 -0.010067 -0.128075
0.490001 0.009933 -0.128075
0.490001 -0.010067 -0.108075
0.490001 -0.010067 -0.088075
0.490001 0.009933 -0.108075
0.490001 0.009933 -0.088075
0.470001 0.029933 -0.148075
0.470001 0.049933 -0.148075
0.490001 0.029933 -0.128075
0.490001 0.049933 -0.128075
0.490001 0.029933 -0.108075
0.490001 0.029933 -0.088075
0.490001 0.049933 -0.108075
0.490001 0.049933 -0.088075
0.490001 -0.010067 -0.068075
0.490001 -0.010067 -0.048075
0.490001 0.009933 -0.068075
0.490001 0.009933 -0.048075
0.490001 -0.010067 -0.028075
0.490001 -0.010067 -0.008075
0.490001 0.009933 -0.028075
0.490001 0.009933 -0.008075
0.490001 0.029933 -0.068075
0.490001 0.029933 -0.048075
0.490001 0.049933 -0.068075
0.490001 0.049933 -0.048075
0.490001 0.029933 -0.028075
0.490001 0.029933 -0.008075
0.490001 0.049933 -0.028075
0.490001 0.049933 -0.008075
0.450001 0.129933 -0.148075
0.470001 0.069933 -0.148075
0.470001 0.069933 -0.128075
0.470001 0.089933 -0.148075
0.470001 0.089933 -0.128075
0.470001 0.069933 -0.108075
0.470001 0.089933 -0.108075
0.490001 0.069933 -0.108075
0.490001 0.069933 -0.088075
0.490001 0.089933 -0.108075
0.490001 0.089933 -0.088075
0.470001 0.109933 -0.148075
0.470001 0.109933 -0.128075
0.470001 0.129933 -0.148075
0.470001 0.129933 -0.128075
0.470001 0.109933 -0.108075
0.470001 0.109933 -0.088075
0.470001 0.129933 -0.108075
0.470001 0.129933 -0.088075
0.490001 0.109933 -0.088075
0.490001 0.069933 -0.068075
0.490001 0.069933 -0.048075
0.490001 0.089933 -0.068075
0.490001 0.089933 -0.048075
0.490001 0.069933 -0.028075
0.490001 0.069933 -0.008075
0.490001 0.089933 -0.028075
0.490001 0.089933 -0.008075
0.470001 0.109933 -0.068075
0.470001 0.129933 -0.068075
0.490001 0.109933 -0.068075
0.490001 0.109933 -0.048075
0.490001 0.129933 -0.048075
0.490001 0.109933 -0.028075
0.490001 0.109933 -0.008075
0.490001 0.129933 -0.028075
0.490001 0.129933 -0.008075
0.350001 0.149933 -0.308075
0.350001 0.169933 -0.308075
0.370001 0.149933 -0.308075
0.370001 0.149933 -0.288075
0.370001 0.169933 -0.308075
0.370001 0.169933 -0.288075
0.350001 0.189933 -0.308075
0.350001 0.189933 -0.288075
0.350001 0.209933 -0.308075
0.350001 0.209933 -0.288075
0.370001 0.189933 -0.288075
0.350001 0.209933 -0.268075
0.370001 0.189933 -0.268075
0.370001 0.209933 -0.268075
0.370001 0.209933 -0.248075
0.390001 0.149933 -0.288075
0.390001 0.149933 -0.268075
0.390001 0.149933 -0.248075
0.390001 0.169933 -0.268075
0.390001 0.169933 -0.248075
0.410001 0.149933 -0.248075
0.410001 0.169933 -0.248075
0.390001 0.189933 -0.268075
0.390001 0.189933 -0.248075
0.390001 0.209933 -0.248075
0.410001 0.149933 -0.228075
0.410001 0.169933 -0.228075
0.410001 0.169933 -0.208075
0.390001 0.189933 -0.228075
0.390001 0.209933 -0.228075
0.390001 0.209933 -0.208075
0.410001 0.189933 -0.228075
0.410001 0.189933 -0.208075
0.410001 0.209933 -0.208075
0.410001 0.189933 -0.188075
0.410001 0.209933 -0.188075
0.410001 0.209933 -0.168075
0.350001 0.229933 -0.288075
0.350001 0.229933 -0.268075
0.350001 0.229933 -0.248075
0.350001 0.249933 -0.268075
0.350001 0.249933 -0.248075
0.370001 0.229933 -0.248075
0.350001 0.269933 -0.248075
0.350001 0.249933 -0.228075
0.370001 0.229933 -0.228075
0.370001 0.249933 -0.228075
0.370001 0.249933 -0.208075
0.350001 0.269933 -0.228075
0.350001 0.289933 -0.228075
0.350001 0.289933 -0.208075
0.370001 0.269933 -0.208075
0.350001 0.289933 -0.188075
0.370001 0.269933 -0.188075
0.370001 0.269933 -0.168075
0.370001 0.289933 -0.188075
0.370001 0.289933 -0.168075
0.390001 0.229933 -0.228075
0.390001 0.229933 -0.208075
0.390001 0.249933 -0.208075
0.390001 0.229933 -0.188075
0.390001 0.249933 -0.188075
0.390001 0.249933 -0.168075
0.410001 0.229933 -0.188075
0.410001 0.229933 -0.168075
0.410001 0.249933 -0.168075
0.390001 0.269933 -0.168075
0.430001 0.149933 -0.228075
0.430001 0.149933 -0.208075
0.430001 0.169933 -0.208075
0.430001 0.149933 -0.188075
0.430001 0.169933 -0.188075
0.430001 0.169933 -0.168075
0.450001 0.149933 -0.168075
0.450001 0.169933 -0.168075
0.430001 0.189933 -0.188075
0.430001 0.189933 -0.168075
0.430001 0.209933 -0.168075
0.370001 0.289933 -0.148075
0.410001 0.229933 -0.148075
0.410001 0.229933 -0.128075
0.410001 0.249933 -0.148075
0.410001 0.249933 -0.128075
0.410001 0.249933 -0.108075
0.390001 0.269933 -0.148075
0.390001 0.269933 -0.128075
0.390001 0.289933 -0.148075
0.390001 0.289933 -0.128075
0.410001 0.269933 -0.128075
0.390001 0.289933 -0.108075
0.390001 0.289933 -0.088075
0.410001 0.269933 -0.108075
0.410001 0.269933 -0.088075
0.390001 0.289933 -0.068075
0.390001 0.289933 -0.048075
0.410001 0.269933 -0.068075
0.410001 0.269933 -0.048075
0.410001 0.289933 -0.068075
0.410001 0.289933 -0.048075
0.410001 0.289933 -0.028075
0.410001 0.289933 -0.008075
0.450001 0.149933 -0.148075
0.450001 0.149933 -0.128075
0.450001 0.169933 -0.148075
0.450001 0.169933 -0.128075
0.450001 0.169933 -0.108075
0.450001 0.169933 -0.088075
0.430001 0.189933 -0.148075
0.430001 0.209933 -0.148075
0.430001 0.209933 -0.128075
0.450001 0.189933 -0.148075
0.450001 0.189933 -0.128075
0.430001 0.209933 -0.108075
0.450001 0.189933 -0.108075
0.450001 0.189933 -0.088075
0.450001 0.209933 -0.108075
0.450001 0.209933 -0.088075
0.470001 0.149933 -0.108075
0.470001 0.149933 -0.088075
0.470001 0.169933 -0.108075
0.470001 0.169933 -0.088075
0.450001 0.189933 -0.068075
0.450001 0.189933 -0.048075
0.450001 0.209933 -0.068075
0.450001 0.209933 -0.048075
0.450001 0.209933 -0.028075
0.450001 0.209933 -0.008075
0.470001 0.149933 -0.068075
0.470001 0.149933 -0.048075
0.470001 0.169933 -0.068075
0.470001 0.169933 -0.048075
0.470001 0.149933 -0.028075
0.470001 0.149933 -0.008075
0.470001 0.169933 -0.028075
0.470001 0.169933 -0.008075
0.470001 0.189933 -0.048075
0.470001 0.189933 -0.028075
0.470001 0.189933 -0.008075
0.430001 0.229933 -0.148075
0.430001 0.229933 -0.128075
0.430001 0.229933 -0.108075
0.430001 0.229933 -0.088075
0.430001 0.249933 -0.108075
0.430001 0.249933 -0.088075
0.430001 0.229933 -0.068075
0.430001 0.229933 -0.048075
0.430001 0.249933 -0.068075
0.430001 0.249933 -0.048075
0.450001 0.229933 -0.068075
0.450001 0.229933 -0.048075
0.430001 0.229933 -0.028075
0.430001 0.249933 -0.028075
0.430001 0.249933 -0.008075
0.450001 0.229933 -0.028075
0.450001 0.229933 -0.008075
0.430001 0.269933 -0.028075
0.430001 0.269933 -0.008075
0.490001 -0.010067 0.011925
0.490001 -0.010067 0.031925
0.490001 0.009933 0.011925
0.490001 0.009933 0.031925
0.490001 -0.010067 0.051925
0.490001 -0.010067 0.071925
0.490001 0.009933 0.051925
0.490001 0.009933 0.071925
0.490001 0.029933 0.011925
0.490001 0.029933 0.031925
0.490001 0.049933 0.011925
0.490001 0.049933 0.031925
0.490001 0.029933 0.051925
0.490001 0.029933 0.071925
0.490001 0.049933 0.051925
0.490001 0.049933 0.071925
0.490001 -0.010067 0.091925
0.490001 -0.010067 0.111925
0.490001 0.009933 0.091925
0.490001 0.009933 0.111925
0.470001 -0.010067 0.151925
0.470001 0.009933 0.151925
0.490001 -0.010067 0.131925
0.490001 0.009933 0.131925
0.490001 0.029933 0.091925
0.490001 0.029933 0.111925
0.490001 0.049933 0.091925
0.490001 0.049933 0.111925
0.470001 0.029933 0.131925
0.470001 0.029933 0.151925
0.470001 0.049933 0.131925
0.470001 0.049933 0.151925
0.490001 0.029933 0.131925
0.490001 0.049933 0.131925
0.490001 0.069933 0.011925
0.490001 0.069933 0.031925
0.490001 0.089933 0.011925
0.490001 0.089933 0.031925
0.490001 0.069933 0.051925
0.490001 0.069933 0.071925
0.490001 0.089933 0.051925
0.490001 0.089933 0.071925
0.490001 0.109933 0.011925
0.490001 0.109933 0.031925
0.490001 0.129933 0.011925
0.490001 0.129933 0.031925
0.470001 0.129933 0.071925
0.490001 0.109933 0.051925
0.490001 0.109933 0.071925
0.490001 0.129933 0.051925
0.450001 0.129933 0.151925
0.470001 0.089933 0.111925
0.490001 0.069933 0.091925
0.490001 0.069933 0.111925
0.490001 0.089933 0.091925
0.470001 0.069933 0.131925
0.470001 0.069933 0.151925
0.470001 0.089933 0.131925
0.470001 0.089933 0.151925
0.490001 0.069933 0.131925
0.470001 0.109933 0.091925
0.470001 0.109933 0.111925
0.470001 0.129933 0.091925
0.470001 0.129933 0.111925
0.490001 0.109933 0.091925
0.470001 0.109933 0.131925
0.470001 0.109933 0.151925
0.470001 0.129933 0.131925
0.470001 0.129933 0.151925
0.410001 -0.010067 0.271925
0.410001 0.009933 0.271925
0.390001 -0.010067 0.311925
0.390001 0.009933 0.311925
0.410001 -0.010067 0.291925
0.410001 0.009933 0.291925
0.410001 0.029933 0.271925
0.410001 0.049933 0.271925
0.390001 0.029933 0.311925
0.390001 0.049933 0.291925
0.390001 0.049933 0.311925
0.410001 0.029933 0.291925
0.410001 0.049933 0.291925
0.370001 0.089933 0.311925
0.370001 0.109933 0.311925
0.370001 0.129933 0.291925
0.370001 0.129933 0.311925
0.410001 0.069933 0.271925
0.410001 0.089933 0.271925
0.390001 0.069933 0.291925
0.390001 0.069933 0.311925
0.390001 0.089933 0.291925
0.390001 0.089933 0.311925
0.410001 0.069933 0.291925
0.410001 0.089933 0.291925
0.390001 0.109933 0.271925
0.390001 0.129933 0.271925
0.410001 0.109933 0.251925
0.410001 0.109933 0.271925
0.410001 0.129933 0.251925
0.410001 0.129933 0.271925
0.390001 0.109933 0.291925
0.390001 0.109933 0.311925
0.390001 0.129933 0.291925
0.450001 -0.010067 0.191925
0.450001 0.009933 0.191925
0.450001 -0.010067 0.211925
0.450001 -0.010067 0.231925
0.450001 0.009933 0.211925
0.450001 0.009933 0.231925
0.450001 0.029933 0.191925
0.450001 0.049933 0.191925
0.430001 0.049933 0.231925
0.450001 0.029933 0.211925
0.450001 0.029933 0.231925
0.450001 0.049933 0.211925
0.450001 0.049933 0.231925
0.470001 -0.010067 0.171925
0.470001 -0.010067 0.191925
0.470001 0.009933 0.171925
0.470001 0.009933 0.191925
0.470001 0.029933 0.171925
0.470001 0.029933 0.191925
0.470001 0.049933 0.171925
0.470001 0.049933 0.191925
0.430001 -0.010067 0.251925
0.430001 -0.010067 0.271925
0.430001 0.009933 0.251925
0.430001 0.009933 0.271925
0.430001 0.029933 0.251925
0.430001 0.029933 0.271925
0.430001 0.049933 0.251925
0.430001 0.049933 0.271925
0.450001 0.069933 0.191925
0.450001 0.089933 0.171925
0.450001 0.089933 0.191925
0.430001 0.069933 0.231925
0.430001 0.089933 0.231925
0.450001 0.069933 0.211925
0.450001 0.069933 0.231925
0.450001 0.089933 0.211925
0.450001 0.089933 0.231925
0.450001 0.109933 0.171925
0.450001 0.109933 0.191925
0.450001 0.129933 0.171925
0.450001 0.129933 0.191925
0.430001 0.109933 0.211925
0.430001 0.109933 0.231925
0.430001 0.129933 0.211925
0.430001 0.129933 0.231925
0.450001 0.109933 0.211925
0.470001 0.069933 0.171925
0.470001 0.069933 0.191925
0.470001 0.089933 0.171925
0.470001 0.109933 0.171925
0.430001 0.069933 0.251925
0.430001 0.089933 0.251925
0.430001 0.109933 0.251925
0.410001 0.269933 0.031925
0.410001 0.289933 0.011925
0.410001 0.289933 0.031925
0.390001 0.289933 0.071925
0.410001 0.269933 0.051925
0.410001 0.269933 0.071925
0.410001 0.289933 0.051925
0.410001 0.289933 0.071925
0.370001 0.289933 0.131925
0.370001 0.289933 0.151925
0.410001 0.249933 0.091925
0.410001 0.249933 0.111925
0.410001 0.229933 0.131925
0.410001 0.229933 0.151925
0.410001 0.249933 0.131925
0.410001 0.249933 0.151925
0.390001 0.289933 0.091925
0.390001 0.289933 0.111925
0.410001 0.269933 0.091925
0.410001 0.269933 0.111925
0.410001 0.289933 0.091925
0.390001 0.269933 0.131925
0.390001 0.269933 0.151925
0.390001 0.289933 0.131925
0.390001 0.289933 0.151925
0.410001 0.269933 0.131925
0.450001 0.209933 0.011925
0.450001 0.209933 0.031925
0.450001 0.189933 0.071925
0.450001 0.209933 0.051925
0.450001 0.209933 0.071925
0.470001 0.149933 0.011925
0.470001 0.149933 0.031925
0.470001 0.169933 0.011925
0.470001 0.169933 0.031925
0.470001 0.149933 0.051925
0.470001 0.149933 0.071925
0.470001 0.169933 0.051925
0.470001 0.169933 0.071925
0.470001 0.189933 0.011925
0.470001 0.189933 0.031925
0.470001 0.189933 0.051925
0.450001 0.169933 0.091925
0.450001 0.169933 0.111925
0.450001 0.149933 0.131925
0.450001 0.149933 0.151925
0.450001 0.169933 0.131925
0.450001 0.169933 0.151925
0.430001 0.209933 0.111925
0.450001 0.189933 0.091925
0.450001 0.189933 0.111925
0.450001 0.209933 0.091925
0.450001 0.209933 0.111925
0.430001 0.189933 0.131925
0.430001 0.189933 0.151925
0.430001 0.209933 0.131925
0.430001 0.209933 0.151925
0.450001 0.189933 0.131925
0.450001 0.189933 0.151925
0.470001 0.149933 0.091925
0.470001 0.149933 0.111925
0.470001 0.169933 0.091925
0.470001 0.149933 0.131925
0.430001 0.229933 0.031925
0.430001 0.249933 0.011925
0.430001 0.249933 0.031925
0.450001 0.229933 0.011925
0.450001 0.229933 0.031925
0.430001 0.229933 0.051925
0.430001 0.229933 0.071925
0.430001 0.249933 0.051925
0.430001 0.249933 0.071925
0.450001 0.229933 0.051925
0.450001 0.229933 0.071925
0.430001 0.269933 0.011925
0.430001 0.269933 0.031925
0.430001 0.229933 0.091925
0.430001 0.229933 0.111925
0.430001 0.249933 0.091925
0.430001 0.249933 0.111925
0.430001 0.229933 0.131925
0.430001 0.229933 0.151925
0.430001 0.249933 0.131925
0.410001 0.149933 0.231925
0.410001 0.169933 0.231925
0.410001 0.189933 0.191925
0.410001 0.209933 0.171925
0.410001 0.209933 0.191925
0.390001 0.189933 0.231925
0.390001 0.209933 0.231925
0.410001 0.189933 0.211925
0.410001 0.189933 0.231925
0.410001 0.209933 0.211925
0.410001 0.209933 0.231925
0.370001 0.169933 0.271925
0.350001 0.149933 0.311925
0.350001 0.169933 0.311925
0.370001 0.149933 0.291925
0.370001 0.149933 0.311925
0.370001 0.169933 0.291925
0.350001 0.209933 0.271925
0.370001 0.189933 0.271925
0.370001 0.209933 0.251925
0.370001 0.209933 0.271925
0.350001 0.189933 0.291925
0.350001 0.189933 0.311925
0.350001 0.209933 0.291925
0.370001 0.189933 0.291925
0.390001 0.149933 0.271925
0.390001 0.169933 0.251925
0.390001 0.169933 0.271925
0.410001 0.149933 0.251925
0.410001 0.169933 0.251925
0.390001 0.149933 0.291925
0.390001 0.189933 0.251925
0.390001 0.189933 0.271925
0.390001 0.209933 0.251925
0.370001 0.229933 0.231925
0.370001 0.249933 0.211925
0.370001 0.249933 0.231925
0.350001 0.289933 0.191925
0.370001 0.269933 0.191925
0.370001 0.289933 0.171925
0.370001 0.289933 0.191925
0.350001 0.269933 0.231925
0.350001 0.289933 0.211925
0.350001 0.289933 0.231925
0.370001 0.269933 0.211925
0.370001 0.269933 0.231925
0.390001 0.229933 0.191925
0.390001 0.249933 0.171925
0.390001 0.249933 0.191925
0.410001 0.229933 0.171925
0.410001 0.229933 0.191925
0.410001 0.249933 0.171925
0.390001 0.229933 0.211925
0.390001 0.229933 0.231925
0.390001 0.249933 0.211925
0.390001 0.269933 0.171925
0.390001 0.269933 0.191925
0.350001 0.229933 0.271925
0.350001 0.249933 0.251925
0.350001 0.249933 0.271925
0.370001 0.229933 0.251925
0.370001 0.249933 0.251925
0.350001 0.229933 0.291925
0.350001 0.269933 0.251925
0.430001 0.149933 0.191925
0.430001 0.169933 0.171925
0.430001 0.169933 0.191925
0.450001 0.149933 0.171925
0.450001 0.149933 0.191925
0.450001 0.169933 0.171925
0.430001 0.149933 0.211925
0.430001 0.149933 0.231925
0.430001 0.169933 0.211925
0.430001 0.189933 0.171925
0.430001 0.189933 0.191925
0.430001 0.209933 0.171925
0.350001 0.309933 -0.208075
0.350001 0.309933 -0.188075
0.350001 0.309933 -0.168075
0.350001 0.329933 -0.168075
0.370001 0.309933 -0.168075
0.350001 0.309933 -0.148075
0.350001 0.329933 -0.148075
0.350001 0.329933 -0.128075
0.370001 0.309933 -0.148075
0.370001 0.309933 -0.128075
0.350001 0.329933 -0.108075
0.350001 0.329933 -0.088075
0.370001 0.309933 -0.108075
0.370001 0.309933 -0.088075
0.370001 0.329933 -0.108075
0.370001 0.329933 -0.088075
0.350001 0.349933 -0.108075
0.350001 0.349933 -0.088075
0.390001 0.309933 -0.108075
0.390001 0.309933 -0.088075
0.370001 0.309933 -0.068075
0.370001 0.329933 -0.068075
0.370001 0.329933 -0.048075
0.370001 0.329933 -0.028075
0.370001 0.329933 -0.008075
0.350001 0.349933 -0.068075
0.350001 0.349933 -0.048075
0.350001 0.349933 -0.028075
0.350001 0.349933 -0.008075
0.370001 0.349933 -0.028075
0.370001 0.349933 -0.008075
0.390001 0.309933 -0.068075
0.390001 0.309933 -0.048075
0.390001 0.329933 -0.048075
0.390001 0.309933 -0.028075
0.390001 0.309933 -0.008075
0.390001 0.329933 -0.028075
0.390001 0.329933 -0.008075
0.370001 0.329933 0.011925
0.370001 0.329933 0.031925
0.370001 0.309933 0.071925
0.370001 0.329933 0.051925
0.370001 0.329933 0.071925
0.350001 0.349933 0.011925
0.350001 0.349933 0.031925
0.370001 0.349933 0.011925
0.370001 0.349933 0.031925
0.350001 0.349933 0.051925
0.350001 0.349933 0.071925
0.390001 0.309933 0.011925
0.390001 0.309933 0.031925
0.390001 0.329933 0.011925
0.390001 0.329933 0.031925
0.390001 0.309933 0.051925
0.390001 0.309933 0.071925
0.390001 0.329933 0.051925
0.350001 0.329933 0.091925
0.350001 0.329933 0.111925
0.370001 0.309933 0.091925
0.370001 0.309933 0.111925
0.370001 0.329933 0.091925
0.370001 0.329933 0.111925
0.350001 0.309933 0.151925
0.350001 0.329933 0.131925
0.350001 0.329933 0.151925
0.370001 0.309933 0.131925
0.370001 0.309933 0.151925
0.370001 0.329933 0.131925
0.350001 0.349933 0.091925
0.350001 0.349933 0.111925
0.390001 0.309933 0.091925
0.390001 0.309933 0.111925
0.350001 0.309933 0.171925
0.350001 0.309933 0.191925
0.350001 0.329933 0.171925
0.370001 0.309933 0.171925
0.350001 0.309933 0.211925
0.030001 -0.370067 0.331925
0.030001 -0.370067 0.351925
0.030001 -0.350067 0.351925
0.050001 -0.370067 0.331925
0.050001 -0.350067 0.351925
0.030001 -0.350067 0.371925
0.070001 -0.370067 0.331925
0.070001 -0.350067 0.351925
0.090001 -0.370067 0.331925
0.090001 -0.350067 0.331925
0.090001 -0.350067 0.351925
0.110001 -0.370067 0.331925
0.110001 -0.350067 0.331925
0.110001 -0.350067 0.351925
0.130001 -0.350067 0.331925
0.150001 -0.350067 0.331925
0.170001 -0.350067 0.331925
0.030001 -0.330067 0.371925
0.030001 -0.330067 0.391925
0.030001 -0.310067 0.391925
0.050001 -0.330067 0.371925
0.050001 -0.330067 0.391925
0.050001 -0.310067 0.391925
0.050001 -0.290067 0.391925
0.090001 -0.330067 0.351925
0.070001 -0.330067 0.371925
0.070001 -0.310067 0.391925
0.090001 -0.330067 0.371925
0.090001 -0.310067 0.371925
0.090001 -0.310067 0.391925
0.070001 -0.290067 0.391925
0.090001 -0.290067 0.391925
0.030001 -0.290067 0.411925
0.030001 -0.270067 0.411925
0.030001 -0.270067 0.431925
0.050001 -0.290067 0.411925
0.050001 -0.270067 0.411925
0.070001 -0.290067 0.411925
0.070001 -0.270067 0.411925
0.090001 -0.290067 0.411925
0.090001 -0.270067 0.411925
0.030001 -0.250067 0.431925
0.030001 -0.230067 0.431925
0.050001 -0.250067 0.431925
0.050001 -0.230067 0.431925
0.030001 -0.230067 0.451925
0.050001 -0.230067 0.451925
0.030001 -0.210067 0.451925
0.030001 -0.190067 0.471925
0.050001 -0.210067 0.451925
0.050001 -0.190067 0.451925
0.050001 -0.190067 0.471925
0.070001 -0.250067 0.431925
0.070001 -0.230067 0.431925
0.090001 -0.250067 0.411925
0.090001 -0.250067 0.431925
0.090001 -0.230067 0.431925
0.090001 -0.210067 0.431925
0.070001 -0.210067 0.451925
0.070001 -0.190067 0.451925
0.070001 -0.190067 0.471925
0.090001 -0.210067 0.451925
0.090001 -0.190067 0.451925
0.110001 -0.330067 0.351925
0.130001 -0.330067 0.351925
0.110001 -0.330067 0.371925
0.110001 -0.310067 0.371925
0.110001 -0.310067 0.391925
0.130001 -0.310067 0.371925
0.110001 -0.290067 0.391925
0.130001 -0.290067 0.391925
