ply
format ascii 1.0
element vertex 1718
property float x
property float y
property float z
end_header
0.357501 0.302433 0.167425
0.357501 0.313433 0.167425
0.346501 0.324433 0.145425
0.346501 0.335433 0.134425
0.357501 0.324433 0.134425
0.346501 0.324433 0.167425
0.335501 0.313433 0.189425
0.324501 0.313433 0.211425
0.335501 0.302433 0.211425
0.335501 0.313433 0.200425
0.335501 0.313433 0.211425
0.324501 0.335433 0.178425
0.324501 0.335433 0.189425
0.335501 0.324433 0.178425
0.335501 0.324433 0.189425
0.324501 0.324433 0.200425
0.324501 0.335433 0.200425
0.346501 0.302433 0.189425
0.346501 0.313433 0.178425
0.357501 0.302433 0.178425
0.357501 0.302433 0.189425
0.346501 0.302433 0.200425
0.346501 0.324433 0.178425
0.192501 0.247433 0.387425
0.203501 0.236433 0.387425
0.203501 0.247433 0.387425
0.214501 0.225433 0.387425
0.225501 0.214433 0.387425
0.214501 0.236433 0.387425
0.214501 0.247433 0.376425
0.214501 0.247433 0.387425
0.225501 0.236433 0.387425
0.225501 0.247433 0.376425
0.236501 0.203433 0.387425
0.247501 0.192433 0.387425
0.247501 0.203433 0.387425
0.258501 0.181433 0.387425
0.269501 0.170433 0.387425
0.269501 0.181433 0.387425
0.269501 0.203433 0.365425
0.258501 0.192433 0.387425
0.258501 0.203433 0.376425
0.258501 0.203433 0.387425
0.269501 0.192433 0.376425
0.269501 0.203433 0.376425
0.258501 0.247433 0.343425
0.269501 0.236433 0.343425
0.269501 0.247433 0.343425
0.236501 0.225433 0.387425
0.247501 0.214433 0.387425
0.247501 0.225433 0.376425
0.236501 0.247433 0.365425
0.247501 0.236433 0.365425
0.247501 0.247433 0.354425
0.236501 0.236433 0.376425
0.258501 0.225433 0.365425
0.269501 0.214433 0.365425
0.269501 0.225433 0.354425
0.258501 0.214433 0.376425
0.258501 0.236433 0.354425
0.214501 0.335433 0.299425
0.225501 0.335433 0.288425
0.225501 0.335433 0.299425
0.269501 0.291433 0.299425
0.269501 0.335433 0.255425
0.247501 0.313433 0.299425
0.236501 0.335433 0.277425
0.247501 0.335433 0.277425
0.236501 0.324433 0.299425
0.236501 0.335433 0.288425
0.247501 0.324433 0.288425
0.269501 0.313433 0.277425
0.258501 0.313433 0.288425
0.258501 0.313433 0.299425
0.269501 0.302433 0.299425
0.269501 0.313433 0.288425
0.258501 0.324433 0.277425
0.258501 0.335433 0.266425
0.269501 0.324433 0.266425
0.269501 0.324433 0.277425
0.258501 0.324433 0.288425
0.203501 0.291433 0.343425
0.214501 0.291433 0.343425
0.225501 0.280433 0.343425
0.225501 0.291433 0.343425
0.203501 0.269433 0.365425
0.192501 0.258433 0.387425
0.192501 0.269433 0.376425
0.192501 0.269433 0.387425
0.203501 0.258433 0.376425
0.203501 0.258433 0.387425
0.203501 0.269433 0.376425
0.192501 0.280433 0.365425
0.192501 0.291433 0.354425
0.203501 0.280433 0.365425
0.203501 0.291433 0.354425
0.214501 0.258433 0.365425
0.214501 0.269433 0.365425
0.225501 0.258433 0.365425
0.225501 0.269433 0.354425
0.214501 0.258433 0.376425
0.214501 0.280433 0.354425
0.192501 0.302433 0.343425
0.192501 0.313433 0.343425
0.203501 0.302433 0.343425
0.192501 0.335433 0.321425
0.203501 0.324433 0.321425
0.203501 0.335433 0.310425
0.203501 0.335433 0.321425
0.192501 0.324433 0.332425
0.203501 0.324433 0.332425
0.225501 0.313433 0.321425
0.214501 0.302433 0.343425
0.214501 0.313433 0.332425
0.225501 0.302433 0.332425
0.214501 0.324433 0.310425
0.214501 0.324433 0.321425
0.214501 0.335433 0.310425
0.225501 0.324433 0.310425
0.192501 0.302433 0.354425
0.236501 0.269433 0.343425
0.247501 0.258433 0.343425
0.247501 0.269433 0.343425
0.236501 0.280433 0.343425
0.236501 0.291433 0.332425
0.247501 0.280433 0.332425
0.247501 0.280433 0.343425
0.258501 0.269433 0.332425
0.258501 0.269433 0.343425
0.269501 0.258433 0.343425
0.269501 0.269433 0.332425
0.258501 0.280433 0.321425
0.258501 0.291433 0.321425
0.269501 0.280433 0.310425
0.269501 0.280433 0.321425
0.269501 0.291433 0.310425
0.258501 0.280433 0.332425
0.236501 0.258433 0.354425
0.236501 0.269433 0.354425
0.236501 0.302433 0.321425
0.236501 0.313433 0.310425
0.236501 0.313433 0.321425
0.247501 0.302433 0.310425
0.247501 0.302433 0.321425
0.247501 0.313433 0.310425
0.236501 0.302433 0.332425
0.258501 0.302433 0.310425
0.313501 0.247433 0.299425
0.357501 0.181433 0.299425
0.357501 0.203433 0.277425
0.346501 0.203433 0.299425
0.357501 0.192433 0.288425
0.357501 0.192433 0.299425
0.357501 0.203433 0.288425
0.346501 0.247433 0.255425
0.357501 0.236433 0.255425
0.357501 0.247433 0.244425
0.335501 0.214433 0.299425
0.335501 0.225433 0.288425
0.335501 0.225433 0.299425
0.335501 0.247433 0.277425
0.324501 0.236433 0.299425
0.324501 0.247433 0.288425
0.324501 0.247433 0.299425
0.335501 0.236433 0.288425
0.346501 0.225433 0.277425
0.357501 0.214433 0.266425
0.357501 0.214433 0.277425
0.357501 0.225433 0.266425
0.346501 0.214433 0.288425
0.346501 0.225433 0.288425
0.346501 0.236433 0.266425
0.346501 0.236433 0.277425
0.346501 0.247433 0.266425
0.313501 0.170433 0.343425
0.313501 0.181433 0.343425
0.302501 0.192433 0.343425
0.302501 0.203433 0.343425
0.313501 0.192433 0.343425
0.313501 0.203433 0.332425
0.313501 0.203433 0.343425
0.291501 0.181433 0.365425
0.280501 0.170433 0.376425
0.280501 0.170433 0.387425
0.280501 0.181433 0.376425
0.291501 0.170433 0.376425
0.280501 0.192433 0.365425
0.280501 0.203433 0.365425
0.291501 0.192433 0.354425
0.291501 0.203433 0.354425
0.280501 0.192433 0.376425
0.302501 0.170433 0.354425
0.302501 0.170433 0.365425
0.302501 0.181433 0.354425
0.313501 0.170433 0.354425
0.280501 0.225433 0.343425
0.291501 0.214433 0.343425
0.291501 0.225433 0.343425
0.291501 0.247433 0.321425
0.280501 0.236433 0.343425
0.280501 0.247433 0.332425
0.280501 0.247433 0.343425
0.291501 0.236433 0.332425
0.291501 0.247433 0.332425
0.313501 0.225433 0.321425
0.302501 0.214433 0.343425
0.302501 0.225433 0.332425
0.313501 0.214433 0.332425
0.302501 0.236433 0.321425
0.313501 0.236433 0.310425
0.313501 0.236433 0.321425
0.313501 0.247433 0.310425
0.280501 0.214433 0.354425
0.335501 0.181433 0.321425
0.324501 0.170433 0.343425
0.324501 0.181433 0.343425
0.335501 0.170433 0.332425
0.335501 0.170433 0.343425
0.335501 0.181433 0.332425
0.324501 0.203433 0.321425
0.335501 0.192433 0.321425
0.335501 0.203433 0.310425
0.335501 0.203433 0.321425
0.324501 0.192433 0.332425
0.346501 0.170433 0.321425
0.346501 0.181433 0.310425
0.357501 0.170433 0.310425
0.357501 0.181433 0.310425
0.346501 0.192433 0.310425
0.324501 0.214433 0.321425
0.324501 0.225433 0.310425
0.335501 0.214433 0.310425
0.313501 0.291433 0.255425
0.291501 0.269433 0.299425
0.280501 0.291433 0.288425
0.280501 0.291433 0.299425
0.291501 0.280433 0.299425
0.291501 0.291433 0.288425
0.302501 0.269433 0.288425
0.302501 0.269433 0.299425
0.313501 0.258433 0.288425
0.313501 0.258433 0.299425
0.302501 0.280433 0.277425
0.302501 0.291433 0.266425
0.302501 0.291433 0.277425
0.313501 0.280433 0.266425
0.313501 0.280433 0.277425
0.313501 0.291433 0.266425
0.302501 0.280433 0.288425
0.291501 0.313433 0.255425
0.291501 0.335433 0.222425
0.291501 0.335433 0.233425
0.280501 0.324433 0.255425
0.280501 0.335433 0.244425
0.280501 0.335433 0.255425
0.291501 0.324433 0.244425
0.313501 0.313433 0.233425
0.302501 0.302433 0.255425
0.302501 0.313433 0.244425
0.302501 0.313433 0.255425
0.313501 0.302433 0.244425
0.302501 0.324433 0.233425
0.302501 0.335433 0.222425
0.313501 0.324433 0.222425
0.280501 0.302433 0.277425
0.291501 0.302433 0.266425
0.291501 0.302433 0.277425
0.291501 0.313433 0.266425
0.280501 0.302433 0.288425
0.280501 0.324433 0.266425
0.335501 0.269433 0.255425
0.335501 0.280433 0.233425
0.335501 0.291433 0.233425
0.324501 0.280433 0.255425
0.324501 0.291433 0.244425
0.335501 0.280433 0.244425
0.357501 0.258433 0.233425
0.357501 0.269433 0.222425
0.357501 0.269433 0.233425
0.346501 0.258433 0.244425
0.346501 0.258433 0.255425
0.346501 0.269433 0.244425
0.357501 0.258433 0.244425
0.346501 0.280433 0.222425
0.346501 0.280433 0.233425
0.346501 0.291433 0.222425
0.324501 0.258433 0.277425
0.324501 0.269433 0.266425
0.324501 0.269433 0.277425
0.335501 0.258433 0.266425
0.335501 0.269433 0.266425
0.324501 0.258433 0.288425
0.324501 0.302433 0.222425
0.324501 0.302433 0.233425
0.324501 0.313433 0.222425
0.335501 0.302433 0.222425
0.324501 0.302433 0.244425
0.280501 0.258433 0.321425
0.280501 0.269433 0.321425
0.291501 0.258433 0.310425
0.291501 0.258433 0.321425
0.291501 0.269433 0.310425
0.280501 0.258433 0.332425
0.280501 0.280433 0.310425
0.302501 0.258433 0.310425
0.225501 0.423433 0.123425
0.258501 0.423433 0.046425
0.258501 0.423433 0.057425
0.269501 0.423433 0.046425
0.269501 0.423433 0.057425
0.258501 0.423433 0.079425
0.269501 0.412433 0.079425
0.236501 0.423433 0.101425
0.247501 0.423433 0.090425
0.247501 0.423433 0.101425
0.236501 0.423433 0.112425
0.236501 0.423433 0.123425
0.247501 0.412433 0.123425
0.247501 0.423433 0.112425
0.269501 0.401433 0.112425
0.269501 0.401433 0.123425
0.258501 0.412433 0.090425
0.258501 0.412433 0.101425
0.269501 0.412433 0.090425
0.269501 0.412433 0.101425
0.258501 0.412433 0.112425
0.258501 0.412433 0.123425
0.214501 0.423433 0.145425
0.225501 0.423433 0.134425
0.225501 0.423433 0.145425
0.214501 0.423433 0.167425
0.225501 0.423433 0.167425
0.203501 0.401433 0.211425
0.192501 0.423433 0.189425
0.203501 0.412433 0.189425
0.203501 0.423433 0.178425
0.192501 0.412433 0.200425
0.192501 0.412433 0.211425
0.203501 0.412433 0.200425
0.225501 0.401433 0.189425
0.214501 0.401433 0.200425
0.214501 0.401433 0.211425
0.225501 0.390433 0.211425
0.225501 0.401433 0.200425
0.214501 0.412433 0.178425
0.214501 0.412433 0.189425
0.214501 0.423433 0.178425
0.225501 0.412433 0.178425
0.247501 0.379433 0.211425
0.269501 0.379433 0.178425
0.269501 0.379433 0.189425
0.258501 0.368433 0.211425
0.258501 0.379433 0.200425
0.269501 0.368433 0.200425
0.269501 0.368433 0.211425
0.269501 0.379433 0.200425
0.247501 0.401433 0.167425
0.236501 0.412433 0.145425
0.236501 0.423433 0.134425
0.247501 0.412433 0.134425
0.247501 0.412433 0.145425
0.236501 0.412433 0.167425
0.258501 0.401433 0.134425
0.258501 0.401433 0.145425
0.269501 0.401433 0.134425
0.269501 0.401433 0.145425
0.258501 0.390433 0.167425
0.258501 0.401433 0.167425
0.269501 0.390433 0.167425
0.236501 0.401433 0.178425
0.236501 0.401433 0.189425
0.247501 0.390433 0.189425
0.247501 0.401433 0.178425
0.236501 0.390433 0.200425
0.236501 0.390433 0.211425
0.247501 0.390433 0.200425
0.258501 0.390433 0.178425
0.258501 0.390433 0.189425
0.203501 0.445433 0.079425
0.203501 0.456433 0.046425
0.203501 0.456433 0.057425
0.192501 0.456433 0.079425
0.214501 0.445433 0.057425
0.225501 0.445433 0.046425
0.225501 0.445433 0.057425
0.225501 0.445433 0.079425
0.214501 0.456433 0.046425
0.192501 0.445433 0.101425
0.203501 0.445433 0.090425
0.203501 0.445433 0.101425
0.192501 0.445433 0.112425
0.192501 0.445433 0.123425
0.203501 0.434433 0.123425
0.203501 0.445433 0.112425
0.192501 0.456433 0.090425
0.214501 0.434433 0.101425
0.214501 0.445433 0.090425
0.225501 0.434433 0.090425
0.225501 0.434433 0.101425
0.214501 0.434433 0.112425
0.214501 0.434433 0.123425
0.225501 0.434433 0.112425
0.236501 0.434433 0.046425
0.236501 0.434433 0.057425
0.247501 0.434433 0.046425
0.247501 0.434433 0.057425
0.236501 0.434433 0.079425
0.247501 0.434433 0.079425
0.236501 0.434433 0.090425
0.192501 0.434433 0.145425
0.192501 0.445433 0.134425
0.203501 0.434433 0.134425
0.203501 0.434433 0.145425
0.192501 0.434433 0.167425
0.203501 0.434433 0.167425
0.214501 0.434433 0.134425
0.192501 0.434433 0.178425
0.313501 0.379433 0.046425
0.313501 0.379433 0.057425
0.313501 0.379433 0.079425
0.313501 0.379433 0.090425
0.313501 0.379433 0.101425
0.302501 0.379433 0.112425
0.302501 0.379433 0.123425
0.313501 0.368433 0.123425
0.313501 0.379433 0.112425
0.291501 0.401433 0.046425
0.291501 0.401433 0.057425
0.280501 0.401433 0.079425
0.291501 0.401433 0.079425
0.280501 0.412433 0.046425
0.280501 0.412433 0.057425
0.280501 0.412433 0.079425
0.302501 0.390433 0.046425
0.302501 0.390433 0.057425
0.302501 0.401433 0.046425
0.302501 0.390433 0.079425
0.280501 0.401433 0.090425
0.280501 0.401433 0.101425
0.291501 0.390433 0.090425
0.291501 0.390433 0.101425
0.280501 0.390433 0.123425
0.280501 0.401433 0.112425
0.291501 0.390433 0.112425
0.291501 0.390433 0.123425
0.302501 0.390433 0.090425
0.302501 0.390433 0.101425
0.324501 0.368433 0.057425
0.324501 0.379433 0.046425
0.335501 0.368433 0.046425
0.335501 0.368433 0.057425
0.324501 0.368433 0.079425
0.335501 0.368433 0.079425
0.346501 0.357433 0.046425
0.346501 0.357433 0.057425
0.357501 0.346433 0.046425
0.357501 0.346433 0.057425
0.346501 0.357433 0.079425
0.357501 0.346433 0.079425
0.335501 0.357433 0.090425
0.335501 0.357433 0.101425
0.324501 0.357433 0.123425
0.335501 0.346433 0.112425
0.335501 0.346433 0.123425
0.335501 0.357433 0.112425
0.324501 0.368433 0.090425
0.324501 0.368433 0.101425
0.324501 0.368433 0.112425
0.346501 0.346433 0.090425
0.346501 0.346433 0.101425
0.346501 0.357433 0.090425
0.346501 0.357433 0.101425
0.346501 0.346433 0.112425
0.280501 0.379433 0.145425
0.291501 0.379433 0.145425
0.280501 0.379433 0.167425
0.291501 0.368433 0.167425
0.313501 0.357433 0.134425
0.313501 0.357433 0.145425
0.313501 0.357433 0.167425
0.302501 0.368433 0.134425
0.302501 0.368433 0.145425
0.302501 0.379433 0.134425
0.302501 0.368433 0.167425
0.291501 0.357433 0.189425
0.280501 0.357433 0.200425
0.280501 0.357433 0.211425
0.291501 0.346433 0.211425
0.291501 0.357433 0.200425
0.280501 0.368433 0.189425
0.280501 0.379433 0.178425
0.291501 0.368433 0.178425
0.291501 0.368433 0.189425
0.302501 0.346433 0.189425
0.302501 0.357433 0.178425
0.313501 0.346433 0.178425
0.313501 0.346433 0.189425
0.313501 0.357433 0.178425
0.302501 0.346433 0.200425
0.302501 0.346433 0.211425
0.280501 0.390433 0.134425
0.280501 0.390433 0.145425
0.291501 0.390433 0.134425
0.324501 0.346433 0.145425
0.324501 0.357433 0.134425
0.335501 0.346433 0.134425
0.335501 0.346433 0.145425
0.324501 0.346433 0.167425
0.203501 0.379433 0.255425
0.225501 0.379433 0.233425
0.214501 0.379433 0.244425
0.214501 0.379433 0.255425
0.225501 0.368433 0.255425
0.225501 0.379433 0.244425
0.192501 0.346433 0.299425
0.192501 0.357433 0.288425
0.192501 0.357433 0.299425
0.203501 0.346433 0.299425
0.203501 0.357433 0.288425
0.192501 0.368433 0.277425
0.192501 0.379433 0.266425
0.203501 0.368433 0.266425
0.203501 0.368433 0.277425
0.203501 0.379433 0.266425
0.214501 0.357433 0.277425
0.225501 0.357433 0.266425
0.225501 0.357433 0.277425
0.214501 0.346433 0.288425
0.214501 0.368433 0.266425
0.192501 0.401433 0.222425
0.192501 0.401433 0.233425
0.203501 0.390433 0.233425
0.203501 0.401433 0.222425
0.192501 0.390433 0.244425
0.192501 0.390433 0.255425
0.203501 0.390433 0.244425
0.214501 0.390433 0.233425
0.214501 0.401433 0.222425
0.225501 0.390433 0.222425
0.236501 0.357433 0.255425
0.247501 0.346433 0.255425
0.247501 0.357433 0.244425
0.236501 0.379433 0.222425
0.236501 0.379433 0.233425
0.247501 0.368433 0.222425
0.247501 0.368433 0.233425
0.236501 0.368433 0.244425
0.247501 0.368433 0.244425
0.258501 0.357433 0.233425
0.269501 0.346433 0.233425
0.269501 0.357433 0.222425
0.269501 0.357433 0.233425
0.258501 0.346433 0.244425
0.258501 0.346433 0.255425
0.269501 0.346433 0.244425
0.258501 0.368433 0.222425
0.236501 0.346433 0.277425
0.236501 0.357433 0.266425
0.247501 0.346433 0.266425
0.192501 0.346433 0.310425
0.280501 0.346433 0.233425
0.280501 0.357433 0.222425
0.291501 0.346433 0.222425
0.368501 -0.181567 -0.294575
0.368501 -0.170567 -0.294575
0.368501 -0.181567 -0.283575
0.379501 -0.181567 -0.272575
0.379501 -0.170567 -0.283575
0.379501 -0.170567 -0.272575
0.368501 -0.159567 -0.294575
0.368501 -0.148567 -0.305575
0.368501 -0.148567 -0.294575
0.379501 -0.148567 -0.294575
0.379501 -0.159567 -0.283575
0.379501 -0.148567 -0.283575
0.390501 -0.170567 -0.272575
0.390501 -0.159567 -0.272575
0.390501 -0.148567 -0.283575
0.390501 -0.148567 -0.272575
0.390501 -0.181567 -0.261575
0.390501 -0.181567 -0.250575
0.390501 -0.170567 -0.261575
0.401501 -0.170567 -0.250575
0.401501 -0.181567 -0.239575
0.401501 -0.181567 -0.228575
0.401501 -0.170567 -0.239575
0.401501 -0.159567 -0.261575
0.401501 -0.159567 -0.250575
0.401501 -0.148567 -0.261575
0.368501 -0.137567 -0.305575
0.368501 -0.126567 -0.305575
0.379501 -0.137567 -0.294575
0.379501 -0.126567 -0.294575
0.368501 -0.115567 -0.305575
0.379501 -0.115567 -0.294575
0.379501 -0.104567 -0.305575
0.379501 -0.104567 -0.294575
0.390501 -0.137567 -0.283575
0.390501 -0.126567 -0.283575
0.401501 -0.137567 -0.272575
0.401501 -0.126567 -0.272575
0.390501 -0.115567 -0.294575
0.390501 -0.104567 -0.294575
0.401501 -0.115567 -0.283575
0.401501 -0.115567 -0.272575
0.401501 -0.104567 -0.283575
0.401501 -0.137567 -0.261575
0.412501 -0.170567 -0.228575
0.412501 -0.148567 -0.250575
0.412501 -0.159567 -0.239575
0.412501 -0.159567 -0.228575
0.412501 -0.148567 -0.239575
0.423501 -0.159567 -0.228575
0.423501 -0.148567 -0.228575
0.412501 -0.104567 -0.272575
0.412501 -0.137567 -0.250575
0.412501 -0.126567 -0.261575
0.412501 -0.126567 -0.250575
0.412501 -0.137567 -0.239575
0.423501 -0.137567 -0.228575
0.423501 -0.126567 -0.239575
0.412501 -0.115567 -0.261575
0.412501 -0.115567 -0.250575
0.412501 -0.104567 -0.261575
0.423501 -0.104567 -0.250575
0.423501 -0.115567 -0.239575
0.423501 -0.104567 -0.239575
0.434501 -0.126567 -0.228575
0.434501 -0.115567 -0.228575
0.434501 -0.104567 -0.228575
0.412501 -0.181567 -0.206575
0.423501 -0.170567 -0.206575
0.423501 -0.181567 -0.195575
0.423501 -0.181567 -0.184575
0.423501 -0.170567 -0.195575
0.423501 -0.159567 -0.206575
0.423501 -0.148567 -0.206575
0.434501 -0.170567 -0.184575
0.434501 -0.159567 -0.195575
0.434501 -0.159567 -0.184575
0.434501 -0.148567 -0.195575
0.434501 -0.148567 -0.184575
0.434501 -0.181567 -0.173575
0.434501 -0.181567 -0.162575
0.434501 -0.170567 -0.173575
0.434501 -0.170567 -0.162575
0.445501 -0.181567 -0.140575
0.445501 -0.170567 -0.151575
0.445501 -0.170567 -0.140575
0.434501 -0.159567 -0.173575
0.445501 -0.159567 -0.162575
0.445501 -0.148567 -0.173575
0.445501 -0.148567 -0.162575
0.445501 -0.159567 -0.151575
0.445501 -0.148567 -0.151575
0.434501 -0.137567 -0.206575
0.434501 -0.126567 -0.206575
0.434501 -0.137567 -0.195575
0.434501 -0.126567 -0.195575
0.445501 -0.137567 -0.184575
0.445501 -0.126567 -0.184575
0.434501 -0.115567 -0.206575
0.445501 -0.104567 -0.206575
0.445501 -0.115567 -0.195575
0.445501 -0.115567 -0.184575
0.445501 -0.104567 -0.195575
0.445501 -0.104567 -0.184575
0.445501 -0.137567 -0.173575
0.445501 -0.137567 -0.162575
0.445501 -0.126567 -0.173575
0.379501 -0.093567 -0.305575
0.379501 -0.082567 -0.305575
0.390501 -0.093567 -0.294575
0.390501 -0.082567 -0.294575
0.401501 -0.093567 -0.294575
0.401501 -0.082567 -0.294575
0.401501 -0.093567 -0.283575
0.401501 -0.082567 -0.283575
0.390501 -0.071567 -0.305575
0.390501 -0.071567 -0.294575
0.390501 -0.060567 -0.305575
0.390501 -0.060567 -0.294575
0.401501 -0.071567 -0.294575
0.401501 -0.060567 -0.294575
0.390501 -0.049567 -0.305575
0.390501 -0.049567 -0.294575
0.390501 -0.038567 -0.305575
0.401501 -0.049567 -0.294575
0.401501 -0.038567 -0.294575
0.390501 -0.027567 -0.305575
0.390501 -0.016567 -0.305575
0.401501 -0.027567 -0.294575
0.401501 -0.016567 -0.294575
0.412501 -0.093567 -0.272575
0.412501 -0.082567 -0.272575
0.412501 -0.071567 -0.283575
0.412501 -0.071567 -0.272575
0.412501 -0.060567 -0.283575
0.412501 -0.060567 -0.272575
0.412501 -0.093567 -0.261575
0.423501 -0.093567 -0.250575
0.423501 -0.082567 -0.261575
0.423501 -0.082567 -0.250575
0.423501 -0.071567 -0.261575
0.423501 -0.071567 -0.250575
0.423501 -0.060567 -0.261575
0.434501 -0.093567 -0.239575
0.434501 -0.093567 -0.228575
0.434501 -0.082567 -0.239575
0.434501 -0.082567 -0.228575
0.434501 -0.060567 -0.250575
0.434501 -0.071567 -0.239575
0.434501 -0.060567 -0.239575
0.445501 -0.060567 -0.228575
0.412501 -0.049567 -0.283575
0.412501 -0.049567 -0.272575
0.412501 -0.038567 -0.283575
0.423501 -0.038567 -0.272575
0.412501 -0.027567 -0.283575
0.412501 -0.016567 -0.283575
0.423501 -0.027567 -0.272575
0.423501 -0.016567 -0.272575
0.423501 -0.049567 -0.261575
0.423501 -0.038567 -0.261575
0.423501 -0.027567 -0.261575
0.423501 -0.016567 -0.261575
0.434501 -0.049567 -0.250575
0.434501 -0.038567 -0.250575
0.434501 -0.049567 -0.239575
0.434501 -0.038567 -0.239575
0.445501 -0.049567 -0.228575
0.445501 -0.038567 -0.228575
0.434501 -0.027567 -0.250575
0.434501 -0.016567 -0.250575
0.434501 -0.027567 -0.239575
0.434501 -0.016567 -0.239575
0.445501 -0.027567 -0.228575
0.445501 -0.016567 -0.228575
0.445501 -0.093567 -0.206575
0.445501 -0.082567 -0.206575
0.445501 -0.093567 -0.195575
0.445501 -0.082567 -0.195575
0.445501 -0.071567 -0.206575
0.445501 -0.060567 -0.206575
0.445501 -0.038567 -0.206575
0.445501 -0.027567 -0.206575
0.456501 -0.159567 -0.140575
0.456501 -0.126567 -0.162575
0.456501 -0.137567 -0.151575
0.456501 -0.137567 -0.140575
0.456501 -0.126567 -0.151575
0.456501 -0.126567 -0.140575
0.456501 -0.115567 -0.173575
0.456501 -0.115567 -0.162575
0.456501 -0.104567 -0.173575
0.456501 -0.104567 -0.162575
0.456501 -0.115567 -0.151575
0.467501 -0.115567 -0.140575
0.467501 -0.104567 -0.151575
0.467501 -0.104567 -0.140575
0.456501 -0.093567 -0.184575
0.456501 -0.082567 -0.184575
0.456501 -0.071567 -0.195575
0.456501 -0.071567 -0.184575
0.456501 -0.060567 -0.195575
0.456501 -0.060567 -0.184575
0.456501 -0.093567 -0.173575
0.456501 -0.082567 -0.173575
0.467501 -0.093567 -0.162575
0.467501 -0.082567 -0.162575
0.467501 -0.093567 -0.151575
0.467501 -0.093567 -0.140575
0.467501 -0.082567 -0.151575
0.467501 -0.082567 -0.140575
0.456501 -0.071567 -0.173575
0.467501 -0.071567 -0.162575
0.467501 -0.060567 -0.173575
0.467501 -0.060567 -0.162575
0.467501 -0.071567 -0.151575
0.467501 -0.060567 -0.151575
0.478501 -0.071567 -0.140575
0.478501 -0.060567 -0.140575
0.456501 -0.049567 -0.195575
0.456501 -0.049567 -0.184575
0.456501 -0.016567 -0.206575
0.456501 -0.027567 -0.195575
0.456501 -0.027567 -0.184575
0.456501 -0.016567 -0.195575
0.456501 -0.016567 -0.184575
0.467501 -0.049567 -0.173575
0.467501 -0.049567 -0.162575
0.467501 -0.038567 -0.173575
0.467501 -0.038567 -0.162575
0.467501 -0.016567 -0.173575
0.467501 -0.016567 -0.162575
0.478501 -0.049567 -0.151575
0.478501 -0.049567 -0.140575
0.478501 -0.038567 -0.151575
0.478501 -0.038567 -0.140575
0.478501 -0.016567 -0.151575
0.478501 -0.016567 -0.140575
0.445501 -0.181567 -0.129575
0.456501 -0.181567 -0.118575
0.456501 -0.170567 -0.129575
0.456501 -0.170567 -0.118575
0.456501 -0.181567 -0.107575
0.456501 -0.170567 -0.107575
0.456501 -0.159567 -0.129575
0.456501 -0.159567 -0.118575
0.456501 -0.148567 -0.129575
0.467501 -0.148567 -0.118575
0.467501 -0.159567 -0.107575
0.467501 -0.148567 -0.107575
0.456501 -0.181567 -0.085575
0.456501 -0.181567 -0.074575
0.456501 -0.170567 -0.085575
0.467501 -0.170567 -0.074575
0.456501 -0.181567 -0.063575
0.456501 -0.181567 -0.052575
0.467501 -0.170567 -0.063575
0.467501 -0.170567 -0.052575
0.467501 -0.159567 -0.085575
0.467501 -0.159567 -0.074575
0.467501 -0.148567 -0.085575
0.467501 -0.148567 -0.074575
0.467501 -0.159567 -0.063575
0.467501 -0.159567 -0.052575
0.478501 -0.148567 -0.063575
0.478501 -0.148567 -0.052575
0.467501 -0.137567 -0.118575
0.467501 -0.126567 -0.129575
0.467501 -0.137567 -0.107575
0.467501 -0.115567 -0.129575
0.467501 -0.115567 -0.118575
0.467501 -0.104567 -0.129575
0.478501 -0.126567 -0.107575
0.478501 -0.104567 -0.118575
0.478501 -0.104567 -0.107575
0.467501 -0.137567 -0.085575
0.478501 -0.137567 -0.074575
0.478501 -0.126567 -0.085575
0.478501 -0.126567 -0.074575
0.478501 -0.137567 -0.063575
0.478501 -0.137567 -0.052575
0.478501 -0.126567 -0.063575
0.478501 -0.126567 -0.052575
0.478501 -0.115567 -0.074575
0.478501 -0.104567 -0.085575
0.478501 -0.115567 -0.063575
0.489501 -0.115567 -0.052575
0.467501 -0.181567 -0.041575
0.467501 -0.181567 -0.030575
0.467501 -0.170567 -0.041575
0.467501 -0.170567 -0.030575
0.467501 -0.181567 -0.008575
0.467501 -0.170567 -0.008575
0.467501 -0.159567 -0.041575
0.467501 -0.159567 -0.030575
0.478501 -0.148567 -0.041575
0.478501 -0.148567 -0.030575
0.478501 -0.159567 -0.008575
0.478501 -0.148567 -0.008575
0.467501 -0.181567 0.002425
0.467501 -0.181567 0.013425
0.467501 -0.170567 0.002425
0.467501 -0.170567 0.013425
0.467501 -0.181567 0.024425
0.467501 -0.181567 0.035425
0.467501 -0.170567 0.024425
0.467501 -0.170567 0.035425
0.467501 -0.159567 0.024425
0.467501 -0.159567 0.035425
0.478501 -0.159567 0.002425
0.478501 -0.159567 0.013425
0.478501 -0.148567 0.002425
0.478501 -0.148567 0.013425
0.478501 -0.148567 0.024425
0.478501 -0.148567 0.035425
0.478501 -0.137567 -0.041575
0.478501 -0.137567 -0.030575
0.478501 -0.126567 -0.041575
0.478501 -0.126567 -0.030575
0.478501 -0.137567 -0.008575
0.489501 -0.126567 -0.008575
0.489501 -0.115567 -0.041575
0.489501 -0.115567 -0.030575
0.489501 -0.115567 -0.008575
0.478501 -0.137567 0.002425
0.478501 -0.137567 0.013425
0.489501 -0.126567 0.002425
0.489501 -0.126567 0.013425
0.478501 -0.137567 0.024425
0.478501 -0.137567 0.035425
0.478501 -0.126567 0.024425
0.478501 -0.126567 0.035425
0.489501 -0.115567 0.002425
0.489501 -0.115567 0.013425
0.489501 -0.115567 0.024425
0.489501 -0.115567 0.035425
0.478501 -0.093567 -0.129575
0.478501 -0.093567 -0.118575
0.478501 -0.082567 -0.129575
0.478501 -0.082567 -0.118575
0.478501 -0.093567 -0.107575
0.478501 -0.082567 -0.107575
0.478501 -0.071567 -0.129575
0.478501 -0.071567 -0.118575
0.478501 -0.060567 -0.129575
0.478501 -0.060567 -0.118575
0.478501 -0.071567 -0.107575
0.489501 -0.060567 -0.107575
0.478501 -0.093567 -0.085575
0.478501 -0.093567 -0.074575
0.489501 -0.082567 -0.085575
0.489501 -0.082567 -0.074575
0.489501 -0.093567 -0.063575
0.489501 -0.093567 -0.052575
0.489501 -0.082567 -0.063575
0.489501 -0.082567 -0.052575
0.489501 -0.071567 -0.085575
0.489501 -0.071567 -0.074575
0.489501 -0.060567 -0.085575
0.489501 -0.060567 -0.074575
0.489501 -0.071567 -0.063575
0.489501 -0.071567 -0.052575
0.489501 -0.060567 -0.063575
0.489501 -0.060567 -0.052575
0.478501 -0.049567 -0.129575
0.478501 -0.049567 -0.118575
0.478501 -0.038567 -0.129575
0.489501 -0.038567 -0.118575
0.489501 -0.049567 -0.107575
0.489501 -0.038567 -0.107575
0.478501 -0.016567 -0.129575
0.489501 -0.016567 -0.118575
0.489501 -0.027567 -0.107575
0.489501 -0.049567 -0.085575
0.489501 -0.049567 -0.074575
0.489501 -0.038567 -0.085575
0.489501 -0.038567 -0.074575
0.489501 -0.049567 -0.063575
0.489501 -0.049567 -0.052575
0.489501 -0.038567 -0.063575
0.489501 -0.027567 -0.085575
0.489501 -0.027567 -0.074575
0.489501 -0.027567 -0.063575
0.500501 -0.038567 -0.052575
0.500501 -0.027567 -0.052575
0.489501 -0.093567 -0.041575
0.489501 -0.093567 -0.030575
0.489501 -0.082567 -0.041575
0.489501 -0.082567 -0.030575
0.489501 -0.093567 -0.008575
0.489501 -0.082567 -0.008575
0.489501 -0.071567 -0.041575
0.489501 -0.071567 -0.030575
0.489501 -0.060567 -0.041575
0.489501 -0.071567 -0.008575
0.489501 -0.093567 0.002425
0.489501 -0.093567 0.013425
0.489501 -0.082567 0.002425
0.489501 -0.082567 0.013425
0.489501 -0.093567 0.024425
0.489501 -0.093567 0.035425
0.489501 -0.082567 0.024425
0.489501 -0.082567 0.035425
0.489501 -0.071567 0.002425
0.489501 -0.071567 0.013425
0.489501 -0.071567 0.024425
0.489501 -0.071567 0.035425
0.500501 -0.060567 -0.030575
0.500501 -0.060567 -0.008575
0.500501 -0.060567 0.002425
0.500501 -0.060567 0.013425
0.500501 -0.060567 0.024425
0.500501 -0.060567 0.035425
0.500501 -0.049567 -0.041575
0.500501 -0.049567 -0.030575
0.500501 -0.038567 -0.041575
0.500501 -0.038567 -0.030575
0.500501 -0.049567 -0.008575
0.500501 -0.038567 -0.008575
0.500501 -0.027567 -0.041575
0.500501 -0.027567 -0.030575
0.500501 -0.027567 -0.008575
0.500501 -0.049567 0.002425
0.500501 -0.049567 0.013425
0.500501 -0.038567 0.002425
0.500501 -0.038567 0.013425
0.500501 -0.049567 0.024425
0.500501 -0.049567 0.035425
0.500501 -0.038567 0.024425
0.500501 -0.038567 0.035425
0.500501 -0.027567 0.002425
0.500501 -0.027567 0.013425
0.500501 -0.027567 0.024425
0.500501 -0.027567 0.035425
0.390501 -0.005567 -0.305575
0.390501 0.005433 -0.305575
0.401501 -0.005567 -0.294575
0.401501 0.005433 -0.294575
0.390501 0.016433 -0.305575
0.390501 0.027433 -0.305575
0.401501 0.016433 -0.294575
0.401501 0.027433 -0.294575
0.379501 0.071433 -0.305575
0.390501 0.038433 -0.305575
0.390501 0.049433 -0.305575
0.390501 0.049433 -0.294575
0.401501 0.038433 -0.294575
0.401501 0.049433 -0.294575
0.390501 0.060433 -0.305575
0.390501 0.060433 -0.294575
0.390501 0.071433 -0.294575
0.401501 0.060433 -0.294575
0.401501 0.071433 -0.294575
0.401501 0.071433 -0.283575
0.412501 -0.005567 -0.283575
0.412501 0.005433 -0.283575
0.423501 -0.005567 -0.272575
0.423501 0.005433 -0.272575
0.412501 0.016433 -0.283575
0.412501 0.027433 -0.283575
0.423501 0.016433 -0.272575
0.423501 0.027433 -0.272575
0.423501 -0.005567 -0.261575
0.423501 0.005433 -0.261575
0.423501 0.016433 -0.261575
0.423501 0.027433 -0.261575
0.434501 -0.005567 -0.250575
0.434501 0.005433 -0.250575
0.445501 -0.005567 -0.239575
0.445501 -0.005567 -0.228575
0.445501 0.005433 -0.239575
0.445501 0.005433 -0.228575
0.434501 0.016433 -0.250575
0.434501 0.027433 -0.250575
0.434501 0.027433 -0.239575
0.445501 0.016433 -0.239575
0.445501 0.016433 -0.228575
0.445501 0.027433 -0.228575
0.412501 0.038433 -0.283575
0.412501 0.049433 -0.283575
0.423501 0.038433 -0.272575
0.423501 0.049433 -0.272575
0.412501 0.060433 -0.283575
0.412501 0.060433 -0.272575
0.412501 0.071433 -0.272575
0.423501 0.038433 -0.261575
0.423501 0.049433 -0.261575
0.423501 0.060433 -0.261575
0.423501 0.071433 -0.261575
0.423501 0.071433 -0.250575
0.434501 0.038433 -0.250575
0.434501 0.049433 -0.250575
0.434501 0.038433 -0.239575
0.434501 0.049433 -0.239575
0.445501 0.038433 -0.228575
0.445501 0.049433 -0.228575
0.434501 0.060433 -0.250575
0.434501 0.060433 -0.239575
0.434501 0.071433 -0.239575
0.445501 0.060433 -0.228575
0.445501 0.071433 -0.228575
0.445501 0.038433 -0.206575
0.445501 0.049433 -0.206575
0.445501 0.060433 -0.206575
0.445501 0.071433 -0.206575
0.379501 0.082433 -0.305575
0.379501 0.093433 -0.305575
0.368501 0.115433 -0.305575
0.379501 0.104433 -0.305575
0.379501 0.115433 -0.305575
0.379501 0.115433 -0.294575
0.390501 0.082433 -0.294575
0.390501 0.093433 -0.294575
0.401501 0.082433 -0.294575
0.401501 0.082433 -0.283575
0.401501 0.093433 -0.283575
0.390501 0.104433 -0.294575
0.390501 0.115433 -0.294575
0.401501 0.104433 -0.283575
0.401501 0.104433 -0.272575
0.401501 0.115433 -0.283575
0.401501 0.115433 -0.272575
0.368501 0.126433 -0.305575
0.368501 0.137433 -0.305575
0.368501 0.137433 -0.294575
0.379501 0.126433 -0.294575
0.379501 0.137433 -0.294575
0.368501 0.148433 -0.294575
0.368501 0.159433 -0.294575
0.379501 0.148433 -0.294575
0.379501 0.159433 -0.294575
0.379501 0.159433 -0.283575
0.390501 0.126433 -0.294575
0.390501 0.126433 -0.283575
0.390501 0.137433 -0.283575
0.401501 0.126433 -0.272575
0.401501 0.137433 -0.272575
0.390501 0.148433 -0.283575
0.390501 0.148433 -0.272575
0.390501 0.159433 -0.272575
0.401501 0.137433 -0.261575
0.390501 0.159433 -0.261575
0.401501 0.148433 -0.261575
0.401501 0.159433 -0.250575
0.412501 0.082433 -0.272575
0.412501 0.093433 -0.272575
0.423501 0.082433 -0.261575
0.423501 0.082433 -0.250575
0.423501 0.093433 -0.261575
0.423501 0.093433 -0.250575
0.412501 0.104433 -0.261575
0.412501 0.115433 -0.261575
0.423501 0.104433 -0.250575
0.423501 0.115433 -0.250575
0.423501 0.104433 -0.239575
0.423501 0.115433 -0.239575
0.434501 0.082433 -0.239575
0.434501 0.082433 -0.228575
0.434501 0.093433 -0.239575
0.434501 0.093433 -0.228575
0.434501 0.104433 -0.228575
0.434501 0.115433 -0.228575
0.412501 0.126433 -0.261575
0.412501 0.126433 -0.250575
0.412501 0.137433 -0.250575
0.423501 0.126433 -0.239575
0.423501 0.126433 -0.228575
0.423501 0.137433 -0.239575
0.423501 0.137433 -0.228575
0.412501 0.148433 -0.250575
0.412501 0.148433 -0.239575
0.412501 0.159433 -0.239575
0.412501 0.159433 -0.228575
0.423501 0.148433 -0.228575
0.445501 0.082433 -0.206575
0.445501 0.093433 -0.206575
0.445501 0.082433 -0.195575
0.445501 0.093433 -0.195575
0.434501 0.104433 -0.206575
0.434501 0.115433 -0.206575
0.445501 0.104433 -0.195575
0.445501 0.104433 -0.184575
0.445501 0.115433 -0.195575
0.445501 0.115433 -0.184575
0.423501 0.148433 -0.206575
0.423501 0.159433 -0.206575
0.423501 0.159433 -0.195575
0.434501 0.126433 -0.206575
0.434501 0.137433 -0.206575
0.434501 0.126433 -0.195575
0.434501 0.137433 -0.195575
0.434501 0.137433 -0.184575
0.445501 0.126433 -0.184575
0.434501 0.148433 -0.195575
0.434501 0.148433 -0.184575
0.445501 0.137433 -0.173575
0.445501 0.148433 -0.173575
0.445501 0.148433 -0.162575
0.445501 0.159433 -0.173575
0.445501 0.159433 -0.162575
0.445501 0.159433 -0.151575
0.456501 -0.005567 -0.206575
0.456501 0.005433 -0.206575
0.456501 -0.005567 -0.195575
0.456501 0.005433 -0.195575
0.467501 -0.005567 -0.184575
0.467501 0.005433 -0.184575
0.456501 0.016433 -0.206575
0.456501 0.027433 -0.206575
0.456501 0.016433 -0.195575
0.456501 0.027433 -0.195575
0.456501 0.027433 -0.184575
0.467501 0.016433 -0.184575
0.467501 -0.005567 -0.173575
0.467501 -0.005567 -0.162575
0.467501 0.005433 -0.173575
0.467501 0.005433 -0.162575
0.467501 0.016433 -0.173575
0.467501 0.016433 -0.162575
0.467501 0.027433 -0.173575
0.467501 0.027433 -0.162575
0.478501 -0.005567 -0.151575
0.478501 -0.005567 -0.140575
0.478501 0.005433 -0.151575
0.478501 0.005433 -0.140575
0.478501 0.016433 -0.151575
0.478501 0.016433 -0.140575
0.478501 0.027433 -0.151575
0.478501 0.027433 -0.140575
0.456501 0.038433 -0.195575
0.456501 0.038433 -0.184575
0.456501 0.049433 -0.195575
0.456501 0.049433 -0.184575
0.456501 0.060433 -0.195575
0.456501 0.060433 -0.184575
0.456501 0.071433 -0.195575
0.456501 0.071433 -0.184575
0.467501 0.038433 -0.173575
0.467501 0.038433 -0.162575
0.467501 0.049433 -0.173575
0.467501 0.049433 -0.162575
0.467501 0.049433 -0.151575
0.456501 0.071433 -0.173575
0.467501 0.060433 -0.173575
0.467501 0.060433 -0.162575
0.467501 0.071433 -0.162575
0.467501 0.060433 -0.151575
0.467501 0.071433 -0.151575
0.478501 0.038433 -0.151575
0.478501 0.038433 -0.140575
0.478501 0.049433 -0.140575
0.478501 0.060433 -0.140575
0.478501 0.071433 -0.140575
0.456501 0.082433 -0.184575
0.456501 0.093433 -0.184575
0.456501 0.082433 -0.173575
0.456501 0.093433 -0.173575
0.456501 0.093433 -0.162575
0.467501 0.082433 -0.162575
0.467501 0.082433 -0.151575
0.467501 0.093433 -0.140575
0.456501 0.104433 -0.173575
0.456501 0.115433 -0.162575
0.467501 0.104433 -0.151575
0.467501 0.104433 -0.140575
0.467501 0.115433 -0.151575
0.467501 0.115433 -0.140575
0.456501 0.126433 -0.173575
0.456501 0.126433 -0.162575
0.456501 0.137433 -0.162575
0.456501 0.126433 -0.151575
0.456501 0.137433 -0.151575
0.456501 0.137433 -0.140575
0.467501 0.126433 -0.140575
0.456501 0.148433 -0.151575
0.456501 0.148433 -0.140575
0.456501 0.159433 -0.140575
0.478501 -0.005567 -0.129575
0.478501 0.005433 -0.129575
0.489501 -0.005567 -0.118575
0.489501 0.005433 -0.118575
0.489501 -0.005567 -0.107575
0.489501 0.005433 -0.107575
0.478501 0.016433 -0.129575
0.478501 0.027433 -0.129575
0.489501 0.016433 -0.118575
0.489501 0.027433 -0.118575
0.489501 0.016433 -0.107575
0.489501 0.027433 -0.107575
0.489501 -0.005567 -0.085575
0.489501 -0.005567 -0.074575
0.489501 0.005433 -0.085575
0.489501 0.005433 -0.074575
0.489501 0.016433 -0.085575
0.489501 0.016433 -0.074575
0.489501 0.027433 -0.085575
0.489501 0.027433 -0.074575
0.489501 0.027433 -0.063575
0.478501 0.038433 -0.129575
0.478501 0.049433 -0.129575
0.478501 0.049433 -0.118575
0.489501 0.038433 -0.118575
0.489501 0.038433 -0.107575
0.489501 0.049433 -0.107575
0.478501 0.060433 -0.129575
0.478501 0.060433 -0.118575
0.478501 0.071433 -0.129575
0.489501 0.060433 -0.107575
0.489501 0.038433 -0.085575
0.489501 0.038433 -0.074575
0.489501 0.049433 -0.085575
0.489501 0.049433 -0.074575
0.489501 0.038433 -0.063575
0.489501 0.049433 -0.063575
0.489501 0.049433 -0.052575
0.489501 0.060433 -0.085575
0.489501 0.071433 -0.074575
0.489501 0.071433 -0.063575
0.489501 0.071433 -0.052575
0.500501 -0.005567 -0.063575
0.500501 -0.005567 -0.052575
0.500501 0.005433 -0.063575
0.500501 0.005433 -0.052575
0.500501 0.016433 -0.063575
0.500501 0.016433 -0.052575
0.500501 0.027433 -0.052575
0.500501 0.038433 -0.052575
0.489501 0.071433 -0.041575
0.489501 0.071433 -0.030575
0.489501 0.071433 0.024425
0.489501 0.071433 0.035425
0.500501 -0.005567 -0.041575
0.500501 -0.005567 -0.030575
0.500501 0.005433 -0.041575
0.500501 0.005433 -0.030575
0.500501 -0.005567 -0.008575
0.500501 0.005433 -0.008575
0.500501 0.016433 -0.041575
0.500501 0.016433 -0.030575
0.500501 0.027433 -0.041575
0.500501 0.027433 -0.030575
0.500501 0.016433 -0.008575
0.500501 0.027433 -0.008575
0.500501 -0.005567 0.002425
0.500501 -0.005567 0.013425
0.500501 0.005433 0.002425
0.500501 0.005433 0.013425
0.500501 -0.005567 0.024425
0.500501 -0.005567 0.035425
0.500501 0.005433 0.024425
0.500501 0.005433 0.035425
0.500501 0.016433 0.002425
0.500501 0.016433 0.013425
0.500501 0.027433 0.002425
0.500501 0.027433 0.013425
0.500501 0.016433 0.024425
0.500501 0.016433 0.035425
0.500501 0.027433 0.024425
0.500501 0.027433 0.035425
0.500501 0.038433 -0.041575
0.500501 0.038433 -0.030575
0.500501 0.049433 -0.041575
0.500501 0.049433 -0.030575
0.500501 0.038433 -0.008575
0.500501 0.049433 -0.008575
0.500501 0.071433 -0.008575
0.500501 0.038433 0.002425
0.500501 0.038433 0.013425
0.500501 0.049433 0.002425
0.500501 0.049433 0.013425
0.500501 0.038433 0.024425
0.500501 0.038433 0.035425
0.500501 0.049433 0.024425
0.500501 0.049433 0.035425
0.500501 0.071433 0.002425
0.500501 0.071433 0.013425
0.467501 0.104433 -0.129575
0.467501 0.115433 -0.129575
0.467501 0.115433 -0.118575
0.478501 0.082433 -0.118575
0.478501 0.093433 -0.129575
0.478501 0.093433 -0.118575
0.478501 0.082433 -0.107575
0.478501 0.093433 -0.107575
0.478501 0.104433 -0.118575
0.478501 0.104433 -0.107575
0.478501 0.115433 -0.107575
0.478501 0.093433 -0.085575
0.489501 0.082433 -0.085575
0.489501 0.082433 -0.074575
0.489501 0.093433 -0.074575
0.489501 0.082433 -0.063575
0.489501 0.082433 -0.052575
0.489501 0.093433 -0.063575
0.489501 0.093433 -0.052575
0.478501 0.104433 -0.085575
0.478501 0.104433 -0.074575
0.478501 0.115433 -0.085575
0.478501 0.115433 -0.074575
0.478501 0.115433 -0.063575
0.478501 0.115433 -0.052575
0.489501 0.104433 -0.063575
0.489501 0.104433 -0.052575
0.467501 0.126433 -0.129575
0.467501 0.126433 -0.118575
0.467501 0.137433 -0.129575
0.467501 0.137433 -0.118575
0.467501 0.126433 -0.107575
0.467501 0.137433 -0.107575
0.456501 0.148433 -0.129575
0.456501 0.159433 -0.129575
0.456501 0.159433 -0.118575
0.467501 0.148433 -0.118575
0.456501 0.159433 -0.107575
0.467501 0.148433 -0.107575
0.467501 0.137433 -0.085575
0.467501 0.148433 -0.085575
0.467501 0.148433 -0.074575
0.467501 0.159433 -0.085575
0.467501 0.159433 -0.074575
0.467501 0.148433 -0.063575
0.467501 0.148433 -0.052575
0.478501 0.126433 -0.085575
0.478501 0.126433 -0.074575
0.478501 0.137433 -0.074575
0.478501 0.126433 -0.063575
0.478501 0.126433 -0.052575
0.478501 0.137433 -0.063575
0.478501 0.137433 -0.052575
0.489501 0.082433 -0.041575
0.489501 0.082433 -0.030575
0.489501 0.093433 -0.041575
0.489501 0.093433 -0.030575
0.489501 0.082433 -0.008575
0.489501 0.093433 -0.008575
0.489501 0.104433 -0.041575
0.489501 0.104433 -0.030575
0.489501 0.115433 -0.041575
0.489501 0.115433 -0.030575
0.489501 0.104433 -0.008575
0.489501 0.115433 -0.008575
0.489501 0.082433 0.002425
0.489501 0.082433 0.013425
0.489501 0.093433 0.002425
0.489501 0.093433 0.013425
0.489501 0.082433 0.024425
0.489501 0.082433 0.035425
0.489501 0.093433 0.024425
0.489501 0.093433 0.035425
0.489501 0.104433 0.002425
0.489501 0.104433 0.013425
0.489501 0.115433 0.002425
0.489501 0.115433 0.013425
0.489501 0.104433 0.024425
0.489501 0.104433 0.035425
0.489501 0.115433 0.024425
0.489501 0.115433 0.035425
0.478501 0.126433 -0.041575
0.478501 0.126433 -0.030575
0.478501 0.137433 -0.041575
0.478501 0.137433 -0.030575
0.478501 0.126433 -0.008575
0.478501 0.137433 -0.008575
0.478501 0.148433 -0.041575
0.478501 0.159433 -0.030575
0.478501 0.159433 -0.008575
0.478501 0.126433 0.002425
0.478501 0.126433 0.013425
0.478501 0.137433 0.002425
0.478501 0.137433 0.013425
0.478501 0.126433 0.024425
0.478501 0.126433 0.035425
0.478501 0.137433 0.024425
0.478501 0.137433 0.035425
0.478501 0.159433 0.002425
0.478501 0.159433 0.013425
0.478501 0.148433 0.035425
0.478501 0.159433 0.024425
0.445501 -0.181567 0.123425
0.445501 -0.181567 0.134425
0.445501 -0.181567 0.145425
0.445501 -0.170567 0.145425
0.434501 -0.181567 0.167425
0.434501 -0.170567 0.167425
0.445501 -0.159567 0.167425
0.445501 -0.148567 0.167425
0.423501 -0.181567 0.189425
0.412501 -0.181567 0.211425
0.423501 -0.181567 0.200425
0.423501 -0.170567 0.200425
0.423501 -0.170567 0.211425
0.423501 -0.159567 0.211425
0.434501 -0.181567 0.178425
0.434501 -0.170567 0.178425
0.434501 -0.170567 0.189425
0.434501 -0.159567 0.189425
0.434501 -0.148567 0.189425
0.445501 -0.159567 0.178425
0.445501 -0.148567 0.178425
0.434501 -0.159567 0.200425
0.434501 -0.148567 0.200425
0.434501 -0.148567 0.211425
0.445501 -0.137567 0.178425
0.445501 -0.137567 0.189425
0.445501 -0.126567 0.189425
0.434501 -0.137567 0.200425
0.434501 -0.137567 0.211425
0.434501 -0.126567 0.211425
0.445501 -0.126567 0.200425
0.445501 -0.115567 0.189425
0.445501 -0.115567 0.200425
0.445501 -0.115567 0.211425
0.445501 -0.104567 0.200425
0.445501 -0.104567 0.211425
0.445501 -0.093567 0.200425
0.445501 -0.093567 0.211425
0.445501 -0.082567 0.211425
0.445501 -0.071567 0.211425
0.456501 -0.181567 0.057425
0.467501 -0.181567 0.046425
0.467501 -0.170567 0.046425
0.467501 -0.170567 0.057425
0.456501 -0.181567 0.079425
0.467501 -0.170567 0.079425
0.467501 -0.159567 0.046425
0.467501 -0.159567 0.057425
0.467501 -0.159567 0.079425
0.467501 -0.148567 0.079425
0.478501 -0.148567 0.046425
0.478501 -0.148567 0.057425
0.456501 -0.181567 0.090425
0.456501 -0.181567 0.101425
0.456501 -0.170567 0.101425
0.467501 -0.170567 0.090425
0.456501 -0.181567 0.112425
0.456501 -0.170567 0.112425
0.456501 -0.170567 0.123425
0.467501 -0.159567 0.090425
0.467501 -0.159567 0.101425
0.467501 -0.148567 0.090425
0.467501 -0.148567 0.101425
0.456501 -0.159567 0.112425
0.456501 -0.159567 0.123425
0.467501 -0.148567 0.112425
0.467501 -0.148567 0.123425
0.478501 -0.137567 0.046425
0.478501 -0.137567 0.057425
0.478501 -0.126567 0.046425
0.478501 -0.126567 0.057425
0.478501 -0.137567 0.079425
0.478501 -0.126567 0.079425
0.478501 -0.115567 0.057425
0.489501 -0.115567 0.046425
0.478501 -0.115567 0.079425
0.467501 -0.137567 0.101425
0.467501 -0.137567 0.112425
0.467501 -0.137567 0.123425
0.467501 -0.115567 0.112425
0.467501 -0.115567 0.123425
0.467501 -0.104567 0.123425
0.478501 -0.137567 0.090425
0.478501 -0.126567 0.090425
0.478501 -0.126567 0.101425
0.478501 -0.104567 0.090425
0.478501 -0.104567 0.101425
0.478501 -0.104567 0.112425
0.456501 -0.170567 0.134425
0.456501 -0.159567 0.134425
0.456501 -0.148567 0.145425
0.456501 -0.137567 0.134425
0.456501 -0.137567 0.145425
0.456501 -0.126567 0.145425
0.467501 -0.126567 0.134425
0.456501 -0.137567 0.167425
0.456501 -0.126567 0.167425
0.467501 -0.115567 0.134425
0.467501 -0.115567 0.145425
0.467501 -0.104567 0.134425
0.467501 -0.104567 0.145425
0.456501 -0.115567 0.167425
0.456501 -0.104567 0.167425
0.456501 -0.126567 0.178425
0.456501 -0.115567 0.178425
0.456501 -0.104567 0.178425
0.456501 -0.104567 0.189425
0.489501 -0.093567 0.046425
0.489501 -0.093567 0.057425
0.489501 -0.082567 0.046425
0.489501 -0.082567 0.057425
0.489501 -0.093567 0.079425
0.489501 -0.082567 0.079425
0.489501 -0.071567 0.046425
0.489501 -0.071567 0.057425
0.489501 -0.060567 0.046425
0.489501 -0.060567 0.057425
0.489501 -0.071567 0.079425
0.489501 -0.060567 0.079425
0.478501 -0.093567 0.090425
0.478501 -0.093567 0.101425
0.478501 -0.082567 0.101425
0.489501 -0.082567 0.090425
0.478501 -0.093567 0.112425
0.478501 -0.093567 0.123425
0.478501 -0.082567 0.112425
0.478501 -0.082567 0.123425
0.489501 -0.071567 0.090425
0.489501 -0.071567 0.101425
0.489501 -0.060567 0.090425
0.489501 -0.060567 0.101425
0.478501 -0.071567 0.112425
0.478501 -0.071567 0.123425
0.478501 -0.060567 0.112425
0.478501 -0.060567 0.123425
0.489501 -0.049567 0.057425
0.489501 -0.049567 0.079425
0.489501 -0.038567 0.079425
0.489501 -0.027567 0.079425
0.489501 -0.049567 0.090425
0.489501 -0.049567 0.101425
0.489501 -0.038567 0.090425
0.489501 -0.038567 0.101425
0.478501 -0.049567 0.123425
0.478501 -0.038567 0.123425
0.489501 -0.049567 0.112425
0.489501 -0.038567 0.112425
0.489501 -0.027567 0.090425
0.489501 -0.027567 0.101425
0.478501 -0.016567 0.123425
0.489501 -0.027567 0.112425
0.500501 -0.049567 0.046425
0.500501 -0.038567 0.046425
0.500501 -0.038567 0.057425
0.500501 -0.027567 0.046425
0.500501 -0.027567 0.057425
0.467501 -0.093567 0.134425
0.467501 -0.093567 0.145425
0.467501 -0.082567 0.145425
0.467501 -0.093567 0.167425
0.467501 -0.082567 0.167425
0.467501 -0.071567 0.145425
0.467501 -0.071567 0.167425
0.467501 -0.060567 0.167425
0.478501 -0.082567 0.134425
0.478501 -0.071567 0.134425
0.478501 -0.060567 0.134425
0.478501 -0.060567 0.145425
0.456501 -0.093567 0.178425
0.456501 -0.093567 0.189425
0.456501 -0.082567 0.189425
0.467501 -0.082567 0.178425
0.456501 -0.082567 0.200425
0.456501 -0.071567 0.189425
0.456501 -0.060567 0.189425
0.467501 -0.071567 0.178425
0.467501 -0.060567 0.178425
0.456501 -0.071567 0.200425
0.456501 -0.060567 0.200425
0.456501 -0.060567 0.211425
0.467501 -0.049567 0.167425
0.467501 -0.038567 0.167425
0.467501 -0.016567 0.167425
0.478501 -0.049567 0.134425
0.478501 -0.049567 0.145425
0.478501 -0.038567 0.134425
0.478501 -0.038567 0.145425
0.478501 -0.016567 0.134425
0.478501 -0.016567 0.145425
0.467501 -0.049567 0.178425
0.467501 -0.049567 0.189425
0.467501 -0.038567 0.178425
0.456501 -0.049567 0.200425
0.456501 -0.038567 0.211425
0.467501 -0.027567 0.189425
0.467501 -0.016567 0.178425
0.467501 -0.016567 0.189425
0.456501 -0.027567 0.200425
0.456501 -0.027567 0.211425
0.456501 -0.016567 0.200425
0.456501 -0.016567 0.211425
0.401501 -0.181567 0.233425
0.390501 -0.181567 0.255425
0.401501 -0.181567 0.244425
0.401501 -0.170567 0.244425
0.401501 -0.170567 0.255425
0.401501 -0.159567 0.244425
0.401501 -0.159567 0.255425
0.401501 -0.148567 0.255425
0.379501 -0.181567 0.266425
0.379501 -0.181567 0.277425
0.379501 -0.170567 0.277425
0.368501 -0.181567 0.288425
0.368501 -0.170567 0.288425
0.368501 -0.170567 0.299425
0.379501 -0.159567 0.277425
0.368501 -0.159567 0.299425
0.368501 -0.148567 0.299425
0.379501 -0.159567 0.288425
0.379501 -0.148567 0.288425
0.390501 -0.181567 0.266425
0.390501 -0.170567 0.266425
0.390501 -0.159567 0.266425
0.390501 -0.159567 0.277425
0.390501 -0.148567 0.277425
0.401501 -0.148567 0.266425
0.379501 -0.137567 0.288425
0.379501 -0.137567 0.299425
0.379501 -0.126567 0.299425
0.379501 -0.115567 0.299425
0.390501 -0.137567 0.277425
0.401501 -0.137567 0.266425
0.401501 -0.126567 0.266425
0.401501 -0.126567 0.277425
0.390501 -0.126567 0.288425
0.401501 -0.115567 0.277425
0.401501 -0.104567 0.277425
0.390501 -0.115567 0.288425
0.390501 -0.104567 0.299425
0.401501 -0.104567 0.288425
0.412501 -0.181567 0.222425
0.412501 -0.170567 0.222425
0.412501 -0.170567 0.233425
0.412501 -0.159567 0.233425
0.412501 -0.148567 0.233425
0.423501 -0.159567 0.222425
0.423501 -0.148567 0.222425
0.412501 -0.148567 0.244425
0.423501 -0.137567 0.222425
0.423501 -0.137567 0.233425
0.423501 -0.126567 0.233425
0.412501 -0.137567 0.244425
0.412501 -0.137567 0.255425
0.412501 -0.126567 0.244425
0.412501 -0.126567 0.255425
0.423501 -0.115567 0.233425
0.412501 -0.115567 0.255425
0.412501 -0.104567 0.255425
0.423501 -0.115567 0.244425
0.423501 -0.104567 0.244425
0.434501 -0.126567 0.222425
0.434501 -0.115567 0.222425
0.434501 -0.104567 0.222425
0.434501 -0.104567 0.233425
0.412501 -0.115567 0.266425
0.412501 -0.104567 0.266425
0.368501 -0.148567 0.310425
0.368501 -0.137567 0.310425
0.368501 -0.126567 0.310425
0.368501 -0.126567 0.321425
0.368501 -0.115567 0.321425
0.368501 -0.104567 0.321425
0.379501 -0.115567 0.310425
0.379501 -0.104567 0.310425
0.368501 -0.104567 0.332425
0.401501 -0.093567 0.277425
0.390501 -0.093567 0.299425
