ply
format ascii 1.0
element vertex 1700
property float x
property float y
property float z
end_header
0.311751 -0.166817 -0.345825
0.326251 -0.181317 -0.345825
0.326251 -0.166817 -0.345825
0.326251 -0.181317 -0.331325
0.326251 -0.166817 -0.331325
0.311751 -0.152317 -0.360325
0.311751 -0.137817 -0.360325
0.326251 -0.152317 -0.345825
0.326251 -0.137817 -0.360325
0.326251 -0.137817 -0.345825
0.340751 -0.181317 -0.316825
0.340751 -0.166817 -0.331325
0.340751 -0.166817 -0.316825
0.355251 -0.166817 -0.316825
0.340751 -0.137817 -0.345825
0.340751 -0.152317 -0.331325
0.340751 -0.137817 -0.331325
0.355251 -0.152317 -0.316825
0.355251 -0.137817 -0.316825
0.355251 -0.181317 -0.302325
0.355251 -0.181317 -0.287825
0.253751 -0.123317 -0.418325
0.253751 -0.123317 -0.403825
0.253751 -0.108817 -0.418325
0.268251 -0.123317 -0.403825
0.268251 -0.108817 -0.403825
0.253751 -0.094317 -0.418325
0.253751 -0.079817 -0.418325
0.268251 -0.094317 -0.418325
0.268251 -0.094317 -0.403825
0.268251 -0.079817 -0.418325
0.282751 -0.108817 -0.403825
0.282751 -0.123317 -0.389325
0.282751 -0.108817 -0.389325
0.297251 -0.123317 -0.389325
0.297251 -0.123317 -0.374825
0.297251 -0.108817 -0.389325
0.282751 -0.094317 -0.403825
0.282751 -0.079817 -0.403825
0.297251 -0.094317 -0.389325
0.297251 -0.079817 -0.389325
0.253751 -0.065317 -0.432825
0.253751 -0.050817 -0.432825
0.253751 -0.036317 -0.432825
0.253751 -0.021817 -0.432825
0.253751 -0.065317 -0.418325
0.268251 -0.065317 -0.418325
0.268251 -0.050817 -0.418325
0.268251 -0.036317 -0.418325
0.268251 -0.021817 -0.418325
0.282751 -0.065317 -0.403825
0.282751 -0.050817 -0.403825
0.297251 -0.065317 -0.403825
0.297251 -0.050817 -0.403825
0.297251 -0.065317 -0.389325
0.282751 -0.036317 -0.418325
0.282751 -0.036317 -0.403825
0.282751 -0.021817 -0.418325
0.282751 -0.021817 -0.403825
0.297251 -0.036317 -0.403825
0.297251 -0.021817 -0.403825
0.311751 -0.123317 -0.374825
0.311751 -0.108817 -0.374825
0.311751 -0.094317 -0.389325
0.311751 -0.094317 -0.374825
0.311751 -0.079817 -0.389325
0.311751 -0.079817 -0.374825
0.326251 -0.079817 -0.374825
0.311751 -0.065317 -0.389325
0.311751 -0.050817 -0.389325
0.326251 -0.065317 -0.374825
0.326251 -0.050817 -0.374825
0.311751 -0.036317 -0.389325
0.311751 -0.021817 -0.389325
0.326251 -0.036317 -0.374825
0.326251 -0.021817 -0.374825
0.311751 -0.123317 -0.360325
0.326251 -0.123317 -0.360325
0.326251 -0.108817 -0.360325
0.326251 -0.094317 -0.360325
0.326251 -0.079817 -0.360325
0.340751 -0.123317 -0.345825
0.340751 -0.108817 -0.345825
0.355251 -0.108817 -0.345825
0.355251 -0.123317 -0.331325
0.355251 -0.108817 -0.331325
0.340751 -0.094317 -0.360325
0.340751 -0.094317 -0.345825
0.340751 -0.079817 -0.360325
0.355251 -0.094317 -0.345825
0.355251 -0.079817 -0.345825
0.326251 -0.065317 -0.360325
0.340751 -0.065317 -0.360325
0.340751 -0.050817 -0.360325
0.355251 -0.065317 -0.345825
0.355251 -0.050817 -0.345825
0.340751 -0.036317 -0.360325
0.340751 -0.021817 -0.360325
0.355251 -0.036317 -0.345825
0.355251 -0.021817 -0.345825
0.369751 -0.224817 -0.258825
0.369751 -0.210317 -0.273325
0.369751 -0.210317 -0.258825
0.369751 -0.195817 -0.273325
0.384251 -0.195817 -0.258825
0.369751 -0.137817 -0.316825
0.369751 -0.181317 -0.287825
0.369751 -0.166817 -0.302325
0.369751 -0.166817 -0.287825
0.369751 -0.181317 -0.273325
0.369751 -0.166817 -0.273325
0.384251 -0.181317 -0.273325
0.384251 -0.181317 -0.258825
0.384251 -0.166817 -0.273325
0.369751 -0.152317 -0.302325
0.369751 -0.137817 -0.302325
0.384251 -0.152317 -0.287825
0.384251 -0.137817 -0.287825
0.384251 -0.152317 -0.273325
0.384251 -0.137817 -0.273325
0.398751 -0.166817 -0.258825
0.398751 -0.152317 -0.273325
0.398751 -0.152317 -0.258825
0.398751 -0.137817 -0.273325
0.398751 -0.137817 -0.258825
0.369751 -0.123317 -0.316825
0.369751 -0.108817 -0.316825
0.369751 -0.094317 -0.331325
0.369751 -0.094317 -0.316825
0.369751 -0.079817 -0.331325
0.369751 -0.079817 -0.316825
0.384251 -0.094317 -0.316825
0.384251 -0.079817 -0.316825
0.384251 -0.123317 -0.302325
0.384251 -0.123317 -0.287825
0.384251 -0.108817 -0.302325
0.384251 -0.108817 -0.287825
0.384251 -0.094317 -0.302325
0.384251 -0.079817 -0.302325
0.398751 -0.123317 -0.273325
0.398751 -0.108817 -0.273325
0.413251 -0.123317 -0.258825
0.413251 -0.108817 -0.273325
0.413251 -0.108817 -0.258825
0.398751 -0.094317 -0.287825
0.398751 -0.079817 -0.287825
0.398751 -0.094317 -0.273325
0.398751 -0.079817 -0.273325
0.413251 -0.094317 -0.273325
0.413251 -0.094317 -0.258825
0.413251 -0.079817 -0.273325
0.413251 -0.079817 -0.258825
0.369751 -0.050817 -0.345825
0.369751 -0.065317 -0.331325
0.369751 -0.050817 -0.331325
0.384251 -0.065317 -0.316825
0.384251 -0.050817 -0.316825
0.369751 -0.036317 -0.345825
0.369751 -0.021817 -0.345825
0.369751 -0.036317 -0.331325
0.369751 -0.021817 -0.331325
0.384251 -0.036317 -0.316825
0.384251 -0.021817 -0.316825
0.398751 -0.065317 -0.302325
0.398751 -0.065317 -0.287825
0.398751 -0.050817 -0.302325
0.398751 -0.050817 -0.287825
0.413251 -0.065317 -0.273325
0.413251 -0.050817 -0.273325
0.398751 -0.036317 -0.302325
0.398751 -0.036317 -0.287825
0.398751 -0.021817 -0.302325
0.398751 -0.021817 -0.287825
0.413251 -0.021817 -0.287825
0.413251 -0.036317 -0.273325
0.413251 -0.021817 -0.273325
0.427751 -0.079817 -0.258825
0.427751 -0.065317 -0.258825
0.427751 -0.050817 -0.258825
0.427751 -0.036317 -0.258825
0.427751 -0.021817 -0.258825
0.253751 -0.007317 -0.432825
0.253751 0.007183 -0.432825
0.253751 0.021683 -0.432825
0.253751 0.036183 -0.432825
0.268251 -0.007317 -0.418325
0.268251 0.007183 -0.418325
0.268251 0.021683 -0.418325
0.268251 0.036183 -0.418325
0.282751 -0.007317 -0.418325
0.282751 -0.007317 -0.403825
0.282751 0.007183 -0.418325
0.282751 0.007183 -0.403825
0.297251 -0.007317 -0.403825
0.297251 0.007183 -0.403825
0.282751 0.021683 -0.418325
0.282751 0.021683 -0.403825
0.282751 0.036183 -0.418325
0.282751 0.036183 -0.403825
0.297251 0.021683 -0.403825
0.297251 0.036183 -0.403825
0.253751 0.050683 -0.432825
0.253751 0.065183 -0.432825
0.253751 0.065183 -0.418325
0.268251 0.050683 -0.418325
0.268251 0.065183 -0.418325
0.253751 0.079683 -0.418325
0.253751 0.094183 -0.418325
0.268251 0.079683 -0.418325
0.268251 0.094183 -0.418325
0.268251 0.094183 -0.403825
0.282751 0.050683 -0.403825
0.282751 0.065183 -0.403825
0.297251 0.050683 -0.403825
0.297251 0.065183 -0.403825
0.297251 0.050683 -0.389325
0.297251 0.065183 -0.389325
0.282751 0.079683 -0.403825
0.282751 0.094183 -0.403825
0.297251 0.079683 -0.389325
0.297251 0.094183 -0.389325
0.311751 -0.007317 -0.389325
0.311751 0.007183 -0.389325
0.326251 -0.007317 -0.389325
0.326251 -0.007317 -0.374825
0.326251 0.007183 -0.389325
0.326251 0.007183 -0.374825
0.311751 0.021683 -0.389325
0.311751 0.036183 -0.389325
0.326251 0.021683 -0.374825
0.326251 0.036183 -0.374825
0.311751 0.050683 -0.389325
0.311751 0.065183 -0.389325
0.326251 0.050683 -0.374825
0.326251 0.065183 -0.374825
0.311751 0.079683 -0.389325
0.311751 0.079683 -0.374825
0.311751 0.094183 -0.389325
0.311751 0.094183 -0.374825
0.326251 0.079683 -0.374825
0.340751 -0.007317 -0.360325
0.340751 0.007183 -0.360325
0.355251 -0.007317 -0.345825
0.355251 0.007183 -0.345825
0.340751 0.021683 -0.360325
0.340751 0.036183 -0.360325
0.355251 0.021683 -0.345825
0.355251 0.036183 -0.345825
0.326251 0.065183 -0.360325
0.326251 0.079683 -0.360325
0.326251 0.094183 -0.360325
0.340751 0.050683 -0.360325
0.340751 0.065183 -0.360325
0.355251 0.050683 -0.345825
0.355251 0.065183 -0.345825
0.340751 0.079683 -0.360325
0.340751 0.079683 -0.345825
0.340751 0.094183 -0.360325
0.340751 0.094183 -0.345825
0.355251 0.079683 -0.345825
0.355251 0.094183 -0.345825
0.355251 0.094183 -0.331325
0.253751 0.108683 -0.418325
0.253751 0.123183 -0.418325
0.253751 0.123183 -0.403825
0.268251 0.108683 -0.403825
0.268251 0.123183 -0.403825
0.253751 0.137683 -0.403825
0.253751 0.152183 -0.403825
0.268251 0.137683 -0.403825
0.268251 0.152183 -0.389325
0.282751 0.108683 -0.403825
0.282751 0.108683 -0.389325
0.282751 0.123183 -0.389325
0.297251 0.108683 -0.389325
0.297251 0.123183 -0.389325
0.297251 0.123183 -0.374825
0.282751 0.137683 -0.389325
0.282751 0.152183 -0.389325
0.282751 0.152183 -0.374825
0.297251 0.137683 -0.374825
0.297251 0.152183 -0.374825
0.253751 0.166683 -0.403825
0.253751 0.166683 -0.389325
0.253751 0.181183 -0.389325
0.268251 0.166683 -0.389325
0.268251 0.181183 -0.389325
0.268251 0.181183 -0.374825
0.253751 0.195683 -0.389325
0.253751 0.210183 -0.374825
0.268251 0.195683 -0.374825
0.282751 0.166683 -0.374825
0.282751 0.181183 -0.374825
0.311751 0.108683 -0.374825
0.311751 0.123183 -0.374825
0.297251 0.152183 -0.360325
0.268251 0.195683 -0.360325
0.268251 0.210183 -0.360325
0.282751 0.181183 -0.360325
0.297251 0.166683 -0.360325
0.297251 0.181183 -0.360325
0.282751 0.195683 -0.360325
0.282751 0.210183 -0.360325
0.282751 0.210183 -0.345825
0.297251 0.195683 -0.345825
0.297251 0.210183 -0.345825
0.311751 0.123183 -0.360325
0.326251 0.108683 -0.360325
0.326251 0.123183 -0.360325
0.326251 0.123183 -0.345825
0.311751 0.137683 -0.360325
0.311751 0.152183 -0.360325
0.326251 0.137683 -0.360325
0.326251 0.137683 -0.345825
0.326251 0.152183 -0.345825
0.340751 0.108683 -0.345825
0.340751 0.123183 -0.345825
0.355251 0.108683 -0.345825
0.355251 0.108683 -0.331325
0.355251 0.123183 -0.331325
0.355251 0.123183 -0.316825
0.340751 0.137683 -0.345825
0.340751 0.152183 -0.345825
0.340751 0.137683 -0.331325
0.340751 0.152183 -0.331325
0.355251 0.137683 -0.331325
0.355251 0.137683 -0.316825
0.355251 0.152183 -0.316825
0.311751 0.166683 -0.360325
0.311751 0.166683 -0.345825
0.311751 0.181183 -0.345825
0.326251 0.166683 -0.345825
0.326251 0.181183 -0.331325
0.311751 0.195683 -0.345825
0.311751 0.195683 -0.331325
0.311751 0.210183 -0.331325
0.311751 0.210183 -0.316825
0.326251 0.195683 -0.331325
0.326251 0.195683 -0.316825
0.326251 0.210183 -0.316825
0.340751 0.166683 -0.331325
0.340751 0.166683 -0.316825
0.340751 0.181183 -0.316825
0.355251 0.166683 -0.316825
0.355251 0.181183 -0.316825
0.340751 0.195683 -0.316825
0.355251 0.166683 -0.302325
0.355251 0.181183 -0.302325
0.340751 0.195683 -0.302325
0.340751 0.210183 -0.302325
0.340751 0.210183 -0.287825
0.355251 0.195683 -0.302325
0.355251 0.195683 -0.287825
0.355251 0.210183 -0.273325
0.369751 -0.007317 -0.345825
0.369751 0.007183 -0.345825
0.369751 -0.007317 -0.331325
0.369751 0.007183 -0.331325
0.384251 -0.007317 -0.316825
0.384251 0.007183 -0.316825
0.369751 0.021683 -0.345825
0.369751 0.036183 -0.345825
0.369751 0.021683 -0.331325
0.369751 0.036183 -0.331325
0.384251 0.021683 -0.316825
0.384251 0.036183 -0.316825
0.398751 -0.007317 -0.302325
0.398751 0.007183 -0.302325
0.413251 -0.007317 -0.287825
0.413251 0.007183 -0.287825
0.413251 -0.007317 -0.273325
0.413251 0.007183 -0.273325
0.398751 0.021683 -0.302325
0.398751 0.021683 -0.287825
0.398751 0.036183 -0.302325
0.398751 0.036183 -0.287825
0.413251 0.021683 -0.273325
0.413251 0.036183 -0.273325
0.369751 0.050683 -0.345825
0.369751 0.050683 -0.331325
0.369751 0.065183 -0.331325
0.369751 0.065183 -0.316825
0.384251 0.050683 -0.316825
0.384251 0.065183 -0.316825
0.369751 0.079683 -0.331325
0.369751 0.079683 -0.316825
0.369751 0.094183 -0.331325
0.369751 0.094183 -0.316825
0.384251 0.079683 -0.316825
0.384251 0.094183 -0.316825
0.384251 0.079683 -0.302325
0.384251 0.094183 -0.302325
0.398751 0.050683 -0.302325
0.398751 0.050683 -0.287825
0.398751 0.065183 -0.302325
0.398751 0.065183 -0.287825
0.413251 0.050683 -0.273325
0.413251 0.065183 -0.273325
0.398751 0.079683 -0.302325
0.398751 0.079683 -0.287825
0.398751 0.094183 -0.287825
0.398751 0.079683 -0.273325
0.398751 0.094183 -0.273325
0.413251 0.079683 -0.273325
0.413251 0.079683 -0.258825
0.413251 0.094183 -0.273325
0.413251 0.094183 -0.258825
0.427751 -0.007317 -0.273325
0.427751 -0.007317 -0.258825
0.427751 0.007183 -0.273325
0.427751 0.007183 -0.258825
0.427751 0.021683 -0.258825
0.427751 0.036183 -0.258825
0.427751 0.050683 -0.258825
0.427751 0.065183 -0.258825
0.369751 0.108683 -0.316825
0.369751 0.123183 -0.316825
0.369751 0.137683 -0.316825
0.384251 0.108683 -0.302325
0.384251 0.108683 -0.287825
0.384251 0.123183 -0.302325
0.384251 0.123183 -0.287825
0.369751 0.137683 -0.302325
0.369751 0.152183 -0.302325
0.369751 0.152183 -0.287825
0.384251 0.137683 -0.287825
0.384251 0.152183 -0.287825
0.384251 0.137683 -0.273325
0.384251 0.152183 -0.273325
0.398751 0.108683 -0.287825
0.398751 0.108683 -0.273325
0.398751 0.123183 -0.273325
0.413251 0.108683 -0.273325
0.413251 0.108683 -0.258825
0.413251 0.123183 -0.258825
0.398751 0.137683 -0.273325
0.398751 0.137683 -0.258825
0.398751 0.152183 -0.273325
0.398751 0.152183 -0.258825
0.413251 0.137683 -0.258825
0.369751 0.166683 -0.302325
0.369751 0.166683 -0.287825
0.369751 0.181183 -0.287825
0.369751 0.181183 -0.273325
0.384251 0.166683 -0.273325
0.384251 0.166683 -0.258825
0.384251 0.181183 -0.273325
0.384251 0.181183 -0.258825
0.369751 0.195683 -0.273325
0.369751 0.195683 -0.258825
0.369751 0.210183 -0.273325
0.369751 0.210183 -0.258825
0.384251 0.195683 -0.258825
0.398751 0.166683 -0.258825
0.021751 0.224683 -0.447325
0.021751 0.239183 -0.432825
0.036251 0.224683 -0.447325
0.036251 0.224683 -0.432825
0.036251 0.239183 -0.432825
0.021751 0.253683 -0.432825
0.036251 0.253683 -0.432825
0.050751 0.224683 -0.447325
0.050751 0.224683 -0.432825
0.050751 0.239183 -0.432825
0.065251 0.224683 -0.432825
0.065251 0.239183 -0.432825
0.050751 0.253683 -0.432825
0.065251 0.253683 -0.432825
0.021751 0.268183 -0.418325
0.036251 0.268183 -0.418325
0.050751 0.268183 -0.418325
0.065251 0.253683 -0.418325
0.065251 0.268183 -0.418325
0.021751 0.282683 -0.418325
0.021751 0.282683 -0.403825
0.021751 0.297183 -0.403825
0.036251 0.282683 -0.418325
0.036251 0.282683 -0.403825
0.036251 0.297183 -0.403825
0.021751 0.311683 -0.389325
0.021751 0.326183 -0.374825
0.036251 0.311683 -0.389325
0.036251 0.326183 -0.374825
0.050751 0.282683 -0.403825
0.050751 0.297183 -0.403825
0.065251 0.282683 -0.403825
0.065251 0.297183 -0.403825
0.050751 0.297183 -0.389325
0.065251 0.297183 -0.389325
0.050751 0.311683 -0.389325
0.050751 0.326183 -0.374825
0.065251 0.311683 -0.389325
0.065251 0.326183 -0.374825
0.079751 0.224683 -0.432825
0.079751 0.239183 -0.432825
0.094251 0.224683 -0.432825
0.094251 0.239183 -0.432825
0.108751 0.224683 -0.432825
0.108751 0.239183 -0.432825
0.123251 0.224683 -0.432825
0.079751 0.253683 -0.418325
0.079751 0.268183 -0.418325
0.094251 0.253683 -0.418325
0.094251 0.268183 -0.418325
0.094251 0.268183 -0.403825
0.108751 0.239183 -0.418325
0.123251 0.239183 -0.418325
0.108751 0.253683 -0.418325
0.108751 0.268183 -0.403825
0.123251 0.253683 -0.418325
0.123251 0.253683 -0.403825
0.123251 0.268183 -0.403825
0.079751 0.282683 -0.403825
0.094251 0.282683 -0.403825
0.079751 0.297183 -0.389325
0.094251 0.297183 -0.389325
0.079751 0.311683 -0.389325
0.079751 0.311683 -0.374825
0.079751 0.326183 -0.374825
0.094251 0.311683 -0.389325
0.094251 0.311683 -0.374825
0.108751 0.282683 -0.403825
0.108751 0.282683 -0.389325
0.108751 0.297183 -0.389325
0.123251 0.282683 -0.389325
0.123251 0.297183 -0.389325
0.108751 0.311683 -0.374825
0.123251 0.311683 -0.374825
0.065251 0.326183 -0.360325
0.079751 0.326183 -0.360325
0.094251 0.326183 -0.360325
0.108751 0.326183 -0.360325
0.123251 0.311683 -0.360325
0.123251 0.326183 -0.360325
0.021751 0.340683 -0.360325
0.021751 0.355183 -0.345825
0.036251 0.340683 -0.360325
0.036251 0.355183 -0.345825
0.021751 0.369683 -0.345825
0.036251 0.369683 -0.345825
0.021751 0.369683 -0.331325
0.021751 0.384183 -0.316825
0.036251 0.369683 -0.331325
0.036251 0.384183 -0.316825
0.050751 0.340683 -0.360325
0.050751 0.355183 -0.345825
0.065251 0.340683 -0.360325
0.065251 0.355183 -0.345825
0.050751 0.369683 -0.345825
0.050751 0.369683 -0.331325
0.050751 0.384183 -0.316825
0.065251 0.369683 -0.331325
0.065251 0.369683 -0.316825
0.065251 0.384183 -0.316825
0.021751 0.398683 -0.302325
0.021751 0.398683 -0.287825
0.036251 0.398683 -0.302325
0.036251 0.398683 -0.287825
0.021751 0.413183 -0.273325
0.036251 0.413183 -0.273325
0.021751 0.427683 -0.258825
0.036251 0.427683 -0.258825
0.050751 0.398683 -0.302325
0.050751 0.398683 -0.287825
0.065251 0.398683 -0.302325
0.065251 0.398683 -0.287825
0.050751 0.413183 -0.273325
0.065251 0.413183 -0.273325
0.050751 0.427683 -0.258825
0.065251 0.427683 -0.258825
0.079751 0.340683 -0.360325
0.079751 0.340683 -0.345825
0.079751 0.355183 -0.345825
0.094251 0.340683 -0.360325
0.094251 0.340683 -0.345825
0.094251 0.355183 -0.345825
0.094251 0.355183 -0.331325
0.079751 0.369683 -0.331325
0.079751 0.369683 -0.316825
0.079751 0.384183 -0.316825
0.094251 0.369683 -0.316825
0.094251 0.384183 -0.316825
0.108751 0.340683 -0.345825
0.108751 0.355183 -0.345825
0.123251 0.340683 -0.345825
0.108751 0.355183 -0.331325
0.123251 0.355183 -0.331325
0.123251 0.355183 -0.316825
0.108751 0.369683 -0.316825
0.123251 0.369683 -0.316825
0.079751 0.384183 -0.302325
0.094251 0.384183 -0.302325
0.108751 0.384183 -0.302325
0.108751 0.384183 -0.287825
0.123251 0.384183 -0.302325
0.123251 0.384183 -0.287825
0.079751 0.398683 -0.287825
0.094251 0.398683 -0.287825
0.079751 0.398683 -0.273325
0.079751 0.413183 -0.273325
0.094251 0.398683 -0.273325
0.094251 0.413183 -0.273325
0.094251 0.413183 -0.258825
0.079751 0.427683 -0.258825
0.108751 0.398683 -0.287825
0.108751 0.398683 -0.273325
0.108751 0.413183 -0.273325
0.108751 0.413183 -0.258825
0.123251 0.398683 -0.273325
0.123251 0.413183 -0.258825
0.137751 0.224683 -0.432825
0.137751 0.224683 -0.418325
0.137751 0.239183 -0.418325
0.152251 0.224683 -0.418325
0.152251 0.239183 -0.418325
0.152251 0.239183 -0.403825
0.137751 0.253683 -0.403825
0.137751 0.268183 -0.403825
0.152251 0.253683 -0.403825
0.137751 0.268183 -0.389325
0.152251 0.268183 -0.389325
0.166751 0.224683 -0.418325
0.166751 0.224683 -0.403825
0.166751 0.239183 -0.403825
0.181251 0.224683 -0.403825
0.181251 0.239183 -0.403825
0.166751 0.253683 -0.403825
0.166751 0.253683 -0.389325
0.166751 0.268183 -0.389325
0.181251 0.253683 -0.389325
0.181251 0.268183 -0.389325
0.181251 0.268183 -0.374825
0.137751 0.282683 -0.389325
0.137751 0.297183 -0.374825
0.152251 0.282683 -0.389325
0.152251 0.297183 -0.374825
0.166751 0.282683 -0.374825
0.181251 0.282683 -0.374825
0.195751 0.224683 -0.403825
0.195751 0.239183 -0.389325
0.210251 0.224683 -0.389325
0.210251 0.239183 -0.389325
0.195751 0.253683 -0.389325
0.195751 0.268183 -0.374825
0.210251 0.253683 -0.374825
0.224751 0.224683 -0.389325
0.224751 0.239183 -0.374825
0.239251 0.224683 -0.389325
0.239251 0.224683 -0.374825
0.152251 0.297183 -0.360325
0.137751 0.311683 -0.360325
0.137751 0.326183 -0.360325
0.137751 0.326183 -0.345825
0.152251 0.311683 -0.360325
0.152251 0.326183 -0.345825
0.166751 0.297183 -0.360325
0.181251 0.282683 -0.360325
0.181251 0.297183 -0.360325
0.166751 0.311683 -0.360325
0.166751 0.311683 -0.345825
0.166751 0.326183 -0.345825
0.181251 0.311683 -0.345825
0.181251 0.326183 -0.331325
0.195751 0.268183 -0.360325
0.210251 0.253683 -0.360325
0.210251 0.268183 -0.360325
0.239251 0.239183 -0.360325
0.224751 0.253683 -0.360325
0.224751 0.268183 -0.360325
0.224751 0.268183 -0.345825
0.239251 0.253683 -0.360325
0.239251 0.268183 -0.345825
0.195751 0.282683 -0.360325
0.195751 0.297183 -0.345825
0.210251 0.282683 -0.360325
0.210251 0.282683 -0.345825
0.210251 0.297183 -0.345825
0.195751 0.311683 -0.345825
0.195751 0.311683 -0.331325
0.195751 0.326183 -0.331325
0.195751 0.326183 -0.316825
0.210251 0.311683 -0.331325
0.210251 0.311683 -0.316825
0.210251 0.326183 -0.316825
0.224751 0.282683 -0.345825
0.224751 0.297183 -0.345825
0.239251 0.282683 -0.345825
0.224751 0.297183 -0.331325
0.239251 0.282683 -0.331325
0.239251 0.297183 -0.316825
0.224751 0.311683 -0.316825
0.224751 0.326183 -0.316825
0.239251 0.311683 -0.316825
0.224751 0.326183 -0.302325
0.239251 0.326183 -0.302325
0.239251 0.326183 -0.287825
0.137751 0.340683 -0.345825
0.152251 0.340683 -0.345825
0.137751 0.340683 -0.331325
0.137751 0.355183 -0.331325
0.137751 0.355183 -0.316825
0.152251 0.340683 -0.331325
0.152251 0.355183 -0.316825
0.137751 0.369683 -0.316825
0.166751 0.340683 -0.331325
0.166751 0.340683 -0.316825
0.166751 0.355183 -0.316825
0.181251 0.340683 -0.316825
0.181251 0.355183 -0.316825
0.137751 0.369683 -0.302325
0.137751 0.384183 -0.287825
0.152251 0.369683 -0.302325
0.152251 0.369683 -0.287825
0.137751 0.384183 -0.273325
0.152251 0.384183 -0.273325
0.166751 0.355183 -0.302325
0.181251 0.355183 -0.302325
0.166751 0.369683 -0.287825
0.181251 0.369683 -0.287825
0.166751 0.384183 -0.273325
0.181251 0.369683 -0.273325
0.181251 0.384183 -0.273325
0.181251 0.384183 -0.258825
0.137751 0.398683 -0.273325
0.137751 0.398683 -0.258825
0.152251 0.398683 -0.273325
0.152251 0.398683 -0.258825
0.166751 0.398683 -0.258825
0.195751 0.340683 -0.316825
0.195751 0.340683 -0.302325
0.195751 0.355183 -0.287825
0.210251 0.340683 -0.302325
0.210251 0.340683 -0.287825
0.210251 0.355183 -0.287825
0.210251 0.355183 -0.273325
0.195751 0.369683 -0.273325
0.195751 0.384183 -0.258825
0.210251 0.369683 -0.273325
0.210251 0.369683 -0.258825
0.224751 0.340683 -0.287825
0.224751 0.340683 -0.273325
0.224751 0.355183 -0.273325
0.224751 0.355183 -0.258825
0.239251 0.340683 -0.273325
0.239251 0.355183 -0.273325
0.239251 0.355183 -0.258825
0.224751 0.369683 -0.258825
0.253751 0.224683 -0.360325
0.253751 0.239183 -0.360325
0.268251 0.224683 -0.360325
0.268251 0.224683 -0.345825
0.268251 0.239183 -0.345825
0.253751 0.253683 -0.345825
0.253751 0.268183 -0.345825
0.268251 0.253683 -0.345825
0.253751 0.268183 -0.331325
0.268251 0.253683 -0.331325
0.268251 0.268183 -0.331325
0.268251 0.268183 -0.316825
0.282751 0.224683 -0.345825
0.282751 0.239183 -0.345825
0.297251 0.224683 -0.345825
0.282751 0.239183 -0.331325
0.297251 0.224683 -0.331325
0.297251 0.239183 -0.331325
0.297251 0.239183 -0.316825
0.282751 0.253683 -0.331325
0.282751 0.253683 -0.316825
0.282751 0.268183 -0.316825
0.297251 0.253683 -0.316825
0.297251 0.268183 -0.302325
0.297251 0.268183 -0.287825
0.253751 0.282683 -0.331325
0.253751 0.282683 -0.316825
0.253751 0.297183 -0.316825
0.268251 0.282683 -0.316825
0.268251 0.297183 -0.302325
0.268251 0.297183 -0.287825
0.253751 0.311683 -0.302325
0.253751 0.311683 -0.287825
0.253751 0.326183 -0.287825
0.268251 0.311683 -0.287825
0.253751 0.326183 -0.273325
0.268251 0.311683 -0.273325
0.268251 0.326183 -0.273325
0.268251 0.326183 -0.258825
0.282751 0.282683 -0.302325
0.282751 0.297183 -0.287825
0.297251 0.282683 -0.287825
0.282751 0.297183 -0.273325
0.297251 0.282683 -0.273325
0.297251 0.297183 -0.273325
0.282751 0.311683 -0.273325
0.282751 0.311683 -0.258825
0.282751 0.326183 -0.258825
0.297251 0.311683 -0.258825
0.311751 0.224683 -0.316825
0.311751 0.239183 -0.316825
0.326251 0.224683 -0.316825
0.311751 0.239183 -0.302325
0.326251 0.224683 -0.302325
0.326251 0.239183 -0.302325
0.326251 0.239183 -0.287825
0.311751 0.253683 -0.302325
0.311751 0.253683 -0.287825
0.311751 0.268183 -0.287825
0.311751 0.268183 -0.273325
0.326251 0.253683 -0.273325
0.326251 0.268183 -0.273325
0.326251 0.268183 -0.258825
0.340751 0.224683 -0.287825
0.340751 0.239183 -0.273325
0.355251 0.224683 -0.273325
0.355251 0.224683 -0.258825
0.355251 0.239183 -0.273325
0.355251 0.239183 -0.258825
0.340751 0.253683 -0.273325
0.340751 0.253683 -0.258825
0.340751 0.268183 -0.258825
0.311751 0.282683 -0.273325
0.311751 0.297183 -0.258825
0.326251 0.282683 -0.258825
0.253751 0.340683 -0.273325
0.253751 0.340683 -0.258825
0.253751 0.355183 -0.258825
0.268251 0.340683 -0.258825
0.369751 0.224683 -0.258825
0.355251 -0.239317 -0.244325
0.369751 -0.239317 -0.229825
0.369751 -0.224817 -0.244325
0.384251 -0.239317 -0.229825
0.384251 -0.224817 -0.229825
0.384251 -0.239317 -0.215325
0.384251 -0.239317 -0.200825
0.384251 -0.224817 -0.215325
0.384251 -0.210317 -0.244325
0.384251 -0.210317 -0.229825
0.384251 -0.195817 -0.244325
0.398751 -0.239317 -0.200825
0.398751 -0.224817 -0.215325
0.398751 -0.224817 -0.200825
0.398751 -0.210317 -0.229825
0.398751 -0.195817 -0.229825
0.398751 -0.210317 -0.215325
0.398751 -0.210317 -0.200825
0.398751 -0.195817 -0.215325
0.413251 -0.195817 -0.200825
0.398751 -0.239317 -0.186325
0.398751 -0.239317 -0.171825
0.398751 -0.224817 -0.186325
0.413251 -0.239317 -0.171825
0.413251 -0.224817 -0.171825
0.413251 -0.239317 -0.157325
0.413251 -0.239317 -0.142825
0.413251 -0.224817 -0.157325
0.413251 -0.210317 -0.186325
0.413251 -0.210317 -0.171825
0.413251 -0.195817 -0.186325
0.398751 -0.181317 -0.244325
0.398751 -0.181317 -0.229825
0.398751 -0.166817 -0.244325
0.398751 -0.166817 -0.229825
0.413251 -0.181317 -0.229825
0.413251 -0.166817 -0.229825
0.413251 -0.181317 -0.215325
0.413251 -0.181317 -0.200825
0.413251 -0.166817 -0.215325
0.413251 -0.152317 -0.244325
0.413251 -0.152317 -0.229825
0.413251 -0.137817 -0.244325
0.413251 -0.137817 -0.229825
0.427751 -0.224817 -0.157325
0.427751 -0.224817 -0.142825
0.427751 -0.210317 -0.171825
0.427751 -0.195817 -0.171825
0.427751 -0.210317 -0.157325
0.427751 -0.210317 -0.142825
0.427751 -0.195817 -0.157325
0.442251 -0.195817 -0.142825
0.427751 -0.166817 -0.200825
0.427751 -0.137817 -0.229825
0.427751 -0.152317 -0.215325
0.427751 -0.152317 -0.200825
0.427751 -0.137817 -0.215325
0.442251 -0.137817 -0.200825
0.427751 -0.181317 -0.186325
0.427751 -0.181317 -0.171825
0.427751 -0.166817 -0.186325
0.427751 -0.166817 -0.171825
0.442251 -0.181317 -0.171825
0.442251 -0.166817 -0.171825
0.442251 -0.181317 -0.157325
0.442251 -0.181317 -0.142825
0.442251 -0.166817 -0.157325
0.442251 -0.152317 -0.186325
0.442251 -0.152317 -0.171825
0.442251 -0.137817 -0.186325
0.442251 -0.137817 -0.171825
0.456751 -0.166817 -0.142825
0.456751 -0.137817 -0.171825
0.456751 -0.152317 -0.157325
0.456751 -0.152317 -0.142825
0.456751 -0.137817 -0.157325
0.456751 -0.137817 -0.142825
0.413251 -0.239317 -0.128325
0.427751 -0.239317 -0.128325
0.427751 -0.239317 -0.113825
0.427751 -0.224817 -0.128325
0.427751 -0.224817 -0.113825
0.427751 -0.239317 -0.099325
0.427751 -0.239317 -0.084825
0.427751 -0.224817 -0.099325
0.442251 -0.224817 -0.084825
0.427751 -0.210317 -0.128325
0.442251 -0.210317 -0.113825
0.442251 -0.195817 -0.128325
0.442251 -0.195817 -0.113825
0.442251 -0.210317 -0.099325
0.442251 -0.210317 -0.084825
0.442251 -0.195817 -0.099325
0.456751 -0.195817 -0.084825
0.427751 -0.239317 -0.070325
0.427751 -0.239317 -0.055825
0.442251 -0.224817 -0.070325
0.442251 -0.224817 -0.055825
0.442251 -0.239317 -0.041325
0.442251 -0.239317 -0.026825
0.442251 -0.224817 -0.041325
0.442251 -0.224817 -0.026825
0.456751 -0.210317 -0.070325
0.456751 -0.210317 -0.055825
0.456751 -0.195817 -0.070325
0.456751 -0.195817 -0.055825
0.456751 -0.210317 -0.041325
0.456751 -0.210317 -0.026825
0.456751 -0.195817 -0.041325
0.456751 -0.195817 -0.026825
0.442251 -0.181317 -0.128325
0.456751 -0.181317 -0.113825
0.456751 -0.166817 -0.128325
0.456751 -0.166817 -0.113825
0.456751 -0.181317 -0.099325
0.456751 -0.181317 -0.084825
0.456751 -0.166817 -0.099325
0.456751 -0.166817 -0.084825
0.456751 -0.152317 -0.128325
0.456751 -0.152317 -0.113825
0.456751 -0.137817 -0.128325
0.471251 -0.137817 -0.128325
0.471251 -0.137817 -0.113825
0.456751 -0.152317 -0.099325
0.471251 -0.152317 -0.099325
0.471251 -0.152317 -0.084825
0.471251 -0.137817 -0.099325
0.471251 -0.137817 -0.084825
0.456751 -0.181317 -0.070325
0.456751 -0.181317 -0.055825
0.471251 -0.166817 -0.070325
0.471251 -0.166817 -0.055825
0.456751 -0.181317 -0.041325
0.456751 -0.181317 -0.026825
0.471251 -0.166817 -0.041325
0.471251 -0.166817 -0.026825
0.471251 -0.152317 -0.070325
0.471251 -0.152317 -0.055825
0.471251 -0.137817 -0.070325
0.471251 -0.137817 -0.055825
0.471251 -0.152317 -0.041325
0.471251 -0.152317 -0.026825
0.413251 -0.123317 -0.244325
0.427751 -0.123317 -0.229825
0.427751 -0.108817 -0.244325
0.427751 -0.108817 -0.229825
0.427751 -0.123317 -0.215325
0.442251 -0.123317 -0.200825
0.442251 -0.108817 -0.215325
0.442251 -0.108817 -0.200825
0.427751 -0.094317 -0.244325
0.427751 -0.094317 -0.229825
0.427751 -0.079817 -0.244325
0.427751 -0.079817 -0.229825
0.442251 -0.094317 -0.229825
0.442251 -0.079817 -0.229825
0.442251 -0.094317 -0.215325
0.442251 -0.094317 -0.200825
0.442251 -0.079817 -0.215325
0.456751 -0.079817 -0.200825
0.442251 -0.123317 -0.186325
0.442251 -0.123317 -0.171825
0.442251 -0.108817 -0.186325
0.456751 -0.123317 -0.171825
0.456751 -0.108817 -0.186325
0.456751 -0.108817 -0.171825
0.456751 -0.123317 -0.157325
0.456751 -0.108817 -0.157325
0.471251 -0.123317 -0.142825
0.471251 -0.108817 -0.142825
0.456751 -0.094317 -0.186325
0.456751 -0.094317 -0.171825
0.456751 -0.079817 -0.186325
0.456751 -0.079817 -0.171825
0.471251 -0.079817 -0.171825
0.471251 -0.094317 -0.157325
0.471251 -0.094317 -0.142825
0.471251 -0.079817 -0.157325
0.471251 -0.079817 -0.142825
0.427751 -0.065317 -0.244325
0.427751 -0.050817 -0.244325
0.442251 -0.065317 -0.229825
0.442251 -0.050817 -0.229825
0.442251 -0.065317 -0.215325
0.442251 -0.050817 -0.215325
0.427751 -0.036317 -0.244325
0.427751 -0.021817 -0.244325
0.442251 -0.036317 -0.229825
0.442251 -0.021817 -0.229825
0.456751 -0.065317 -0.200825
0.456751 -0.050817 -0.215325
0.456751 -0.050817 -0.200825
0.456751 -0.036317 -0.215325
0.456751 -0.036317 -0.200825
0.456751 -0.021817 -0.215325
0.456751 -0.021817 -0.200825
0.456751 -0.065317 -0.186325
0.456751 -0.065317 -0.171825
0.456751 -0.050817 -0.186325
0.456751 -0.050817 -0.171825
0.471251 -0.065317 -0.171825
0.471251 -0.050817 -0.171825
0.471251 -0.065317 -0.157325
0.471251 -0.065317 -0.142825
0.471251 -0.050817 -0.157325
0.471251 -0.050817 -0.142825
0.456751 -0.036317 -0.186325
0.456751 -0.021817 -0.186325
0.471251 -0.036317 -0.171825
0.471251 -0.021817 -0.171825
0.471251 -0.036317 -0.157325
0.471251 -0.036317 -0.142825
0.471251 -0.021817 -0.157325
0.471251 -0.123317 -0.128325
0.471251 -0.123317 -0.113825
0.471251 -0.108817 -0.128325
0.471251 -0.108817 -0.113825
0.471251 -0.123317 -0.099325
0.471251 -0.123317 -0.084825
0.471251 -0.108817 -0.099325
0.471251 -0.094317 -0.128325
0.471251 -0.094317 -0.113825
0.471251 -0.079817 -0.128325
0.471251 -0.065317 -0.128325
0.442251 -0.239317 -0.012325
0.442251 -0.239317 0.002175
0.442251 -0.224817 -0.012325
0.442251 -0.224817 0.002175
0.442251 -0.239317 0.016675
0.442251 -0.239317 0.031175
0.442251 -0.224817 0.016675
0.442251 -0.224817 0.031175
0.456751 -0.210317 -0.012325
0.456751 -0.210317 0.002175
0.456751 -0.195817 -0.012325
0.456751 -0.195817 0.002175
0.456751 -0.210317 0.016675
0.456751 -0.210317 0.031175
0.456751 -0.195817 0.016675
0.456751 -0.195817 0.031175
0.427751 -0.239317 0.060175
0.442251 -0.239317 0.045675
0.442251 -0.224817 0.045675
0.442251 -0.224817 0.060175
0.427751 -0.239317 0.074675
0.427751 -0.239317 0.089175
0.442251 -0.224817 0.074675
0.442251 -0.224817 0.089175
0.442251 -0.210317 0.089175
0.456751 -0.210317 0.045675
0.456751 -0.210317 0.060175
0.456751 -0.195817 0.045675
0.456751 -0.195817 0.060175
0.456751 -0.210317 0.074675
0.456751 -0.195817 0.074675
0.456751 -0.195817 0.089175
0.471251 -0.181317 -0.012325
0.471251 -0.181317 0.002175
0.471251 -0.166817 -0.012325
0.471251 -0.166817 0.002175
0.456751 -0.181317 0.031175
0.471251 -0.181317 0.016675
0.471251 -0.181317 0.031175
0.471251 -0.166817 0.016675
0.471251 -0.166817 0.031175
0.471251 -0.152317 -0.012325
0.471251 -0.152317 0.002175
0.471251 -0.152317 0.016675
0.471251 -0.152317 0.031175
0.456751 -0.181317 0.045675
0.456751 -0.181317 0.060175
0.471251 -0.166817 0.045675
0.471251 -0.166817 0.060175
0.456751 -0.181317 0.074675
0.456751 -0.181317 0.089175
0.456751 -0.166817 0.089175
0.471251 -0.166817 0.074675
0.471251 -0.152317 0.045675
0.471251 -0.152317 0.060175
0.471251 -0.137817 0.060175
0.471251 -0.152317 0.074675
0.471251 -0.152317 0.089175
0.471251 -0.137817 0.074675
0.471251 -0.137817 0.089175
0.413251 -0.239317 0.132675
0.413251 -0.239317 0.147175
0.413251 -0.224817 0.147175
0.384251 -0.239317 0.205175
0.398751 -0.239317 0.176175
0.413251 -0.239317 0.161675
0.413251 -0.224817 0.161675
0.413251 -0.224817 0.176175
0.398751 -0.239317 0.190675
0.398751 -0.239317 0.205175
0.398751 -0.224817 0.205175
0.413251 -0.224817 0.190675
0.413251 -0.210317 0.176175
0.398751 -0.210317 0.205175
0.413251 -0.210317 0.190675
0.413251 -0.210317 0.205175
0.413251 -0.195817 0.205175
0.413251 -0.181317 0.205175
0.427751 -0.239317 0.103675
0.427751 -0.239317 0.118175
0.427751 -0.224817 0.103675
0.427751 -0.224817 0.118175
0.427751 -0.239317 0.132675
0.427751 -0.224817 0.132675
0.427751 -0.224817 0.147175
0.442251 -0.210317 0.103675
0.442251 -0.210317 0.118175
0.442251 -0.195817 0.118175
0.427751 -0.210317 0.132675
0.427751 -0.210317 0.147175
0.427751 -0.195817 0.147175
0.442251 -0.195817 0.132675
0.456751 -0.195817 0.103675
0.427751 -0.210317 0.161675
0.427751 -0.210317 0.176175
0.427751 -0.195817 0.161675
0.427751 -0.195817 0.176175
0.427751 -0.195817 0.190675
0.442251 -0.181317 0.132675
0.442251 -0.181317 0.147175
0.442251 -0.166817 0.147175
0.456751 -0.181317 0.103675
0.456751 -0.181317 0.118175
0.456751 -0.166817 0.103675
0.456751 -0.166817 0.118175
0.456751 -0.181317 0.132675
0.456751 -0.166817 0.132675
0.456751 -0.152317 0.118175
0.471251 -0.152317 0.103675
0.471251 -0.137817 0.103675
0.471251 -0.137817 0.118175
0.456751 -0.152317 0.132675
0.456751 -0.152317 0.147175
0.456751 -0.137817 0.132675
0.456751 -0.137817 0.147175
0.471251 -0.137817 0.132675
0.427751 -0.181317 0.176175
0.442251 -0.181317 0.161675
0.442251 -0.166817 0.161675
0.442251 -0.166817 0.176175
0.427751 -0.181317 0.190675
0.427751 -0.181317 0.205175
0.427751 -0.166817 0.190675
0.427751 -0.166817 0.205175
0.442251 -0.166817 0.190675
0.442251 -0.152317 0.161675
0.442251 -0.152317 0.176175
0.442251 -0.137817 0.176175
0.427751 -0.152317 0.205175
0.427751 -0.137817 0.205175
0.442251 -0.152317 0.190675
0.442251 -0.152317 0.205175
0.442251 -0.137817 0.190675
0.442251 -0.137817 0.205175
0.456751 -0.137817 0.161675
0.471251 -0.123317 0.089175
0.471251 -0.123317 0.103675
0.471251 -0.123317 0.118175
0.471251 -0.108817 0.103675
0.471251 -0.108817 0.118175
0.456751 -0.123317 0.147175
0.471251 -0.123317 0.132675
0.471251 -0.108817 0.132675
0.471251 -0.108817 0.147175
0.471251 -0.094317 0.118175
0.471251 -0.094317 0.132675
0.471251 -0.094317 0.147175
0.471251 -0.079817 0.132675
0.471251 -0.079817 0.147175
0.442251 -0.123317 0.190675
0.442251 -0.123317 0.205175
0.442251 -0.108817 0.205175
0.442251 -0.094317 0.205175
0.442251 -0.079817 0.205175
0.456751 -0.123317 0.161675
0.456751 -0.123317 0.176175
0.456751 -0.108817 0.161675
0.456751 -0.108817 0.176175
0.456751 -0.108817 0.190675
0.456751 -0.094317 0.176175
0.456751 -0.079817 0.176175
0.471251 -0.094317 0.161675
0.471251 -0.079817 0.161675
0.456751 -0.094317 0.190675
0.456751 -0.094317 0.205175
0.456751 -0.079817 0.190675
0.456751 -0.079817 0.205175
0.471251 -0.065317 0.132675
0.471251 -0.065317 0.147175
0.471251 -0.050817 0.147175
0.471251 -0.036317 0.147175
0.471251 -0.021817 0.147175
0.471251 -0.065317 0.161675
0.471251 -0.065317 0.176175
0.471251 -0.050817 0.161675
0.471251 -0.050817 0.176175
0.456751 -0.065317 0.190675
0.456751 -0.065317 0.205175
0.456751 -0.050817 0.190675
0.456751 -0.050817 0.205175
0.471251 -0.036317 0.161675
0.471251 -0.036317 0.176175
0.471251 -0.021817 0.161675
0.471251 -0.021817 0.176175
0.456751 -0.036317 0.190675
0.456751 -0.036317 0.205175
0.456751 -0.021817 0.205175
0.471251 -0.021817 0.190675
0.427751 -0.007317 -0.244325
0.427751 0.007183 -0.244325
0.442251 -0.007317 -0.229825
0.442251 0.007183 -0.229825
0.427751 0.021683 -0.244325
0.427751 0.036183 -0.244325
0.442251 0.021683 -0.229825
0.442251 0.036183 -0.229825
0.456751 -0.007317 -0.215325
0.456751 -0.007317 -0.200825
0.456751 0.007183 -0.215325
0.456751 0.007183 -0.200825
0.456751 0.021683 -0.215325
0.456751 0.021683 -0.200825
0.456751 0.036183 -0.215325
0.456751 0.036183 -0.200825
0.456751 -0.007317 -0.186325
0.456751 0.007183 -0.186325
0.471251 -0.007317 -0.171825
0.471251 0.007183 -0.171825
0.471251 -0.007317 -0.157325
0.471251 0.007183 -0.157325
0.456751 0.021683 -0.186325
0.456751 0.036183 -0.186325
0.471251 0.021683 -0.171825
0.471251 0.036183 -0.171825
0.471251 0.021683 -0.157325
0.471251 0.036183 -0.157325
0.471251 0.036183 -0.142825
0.427751 0.050683 -0.244325
0.427751 0.065183 -0.244325
0.427751 0.065183 -0.229825
0.442251 0.050683 -0.229825
0.442251 0.065183 -0.229825
0.442251 0.050683 -0.215325
0.442251 0.065183 -0.215325
0.427751 0.079683 -0.244325
0.427751 0.079683 -0.229825
0.427751 0.094183 -0.244325
0.427751 0.094183 -0.229825
0.442251 0.079683 -0.229825
0.442251 0.094183 -0.229825
0.442251 0.079683 -0.215325
0.442251 0.079683 -0.200825
0.442251 0.094183 -0.215325
0.442251 0.094183 -0.200825
0.456751 0.050683 -0.200825
0.456751 0.065183 -0.200825
0.456751 0.079683 -0.200825
0.456751 0.050683 -0.186325
0.456751 0.065183 -0.186325
0.456751 0.065183 -0.171825
0.471251 0.050683 -0.171825
0.471251 0.065183 -0.171825
0.471251 0.050683 -0.157325
0.471251 0.050683 -0.142825
0.471251 0.065183 -0.157325
0.471251 0.065183 -0.142825
0.456751 0.079683 -0.186325
0.456751 0.079683 -0.171825
0.456751 0.094183 -0.186325
0.456751 0.094183 -0.171825
0.471251 0.079683 -0.171825
0.471251 0.079683 -0.157325
0.471251 0.079683 -0.142825
0.471251 0.094183 -0.157325
0.471251 0.094183 -0.142825
0.471251 0.079683 -0.128325
0.471251 0.094183 -0.128325
0.471251 0.094183 -0.113825
0.413251 0.108683 -0.244325
0.413251 0.123183 -0.244325
0.398751 0.152183 -0.244325
0.413251 0.137683 -0.244325
0.413251 0.137683 -0.229825
0.413251 0.152183 -0.229825
0.369751 0.210183 -0.244325
0.384251 0.195683 -0.244325
0.384251 0.210183 -0.244325
0.384251 0.210183 -0.229825
0.398751 0.166683 -0.244325
0.398751 0.181183 -0.244325
0.398751 0.181183 -0.229825
0.413251 0.166683 -0.229825
0.413251 0.181183 -0.229825
0.413251 0.166683 -0.215325
0.413251 0.181183 -0.215325
0.413251 0.181183 -0.200825
0.398751 0.195683 -0.229825
0.398751 0.210183 -0.229825
0.398751 0.210183 -0.215325
0.398751 0.210183 -0.200825
0.413251 0.195683 -0.215325
0.413251 0.195683 -0.200825
0.413251 0.210183 -0.200825
0.413251 0.195683 -0.186325
0.413251 0.210183 -0.186325
0.413251 0.210183 -0.171825
0.427751 0.108683 -0.244325
0.427751 0.108683 -0.229825
0.427751 0.123183 -0.229825
0.427751 0.123183 -0.215325
0.442251 0.108683 -0.215325
0.442251 0.108683 -0.200825
0.442251 0.123183 -0.215325
0.442251 0.123183 -0.200825
0.427751 0.137683 -0.229825
0.427751 0.152183 -0.229825
0.427751 0.137683 -0.215325
0.427751 0.137683 -0.200825
0.427751 0.152183 -0.215325
0.427751 0.152183 -0.200825
0.442251 0.108683 -0.186325
0.442251 0.123183 -0.186325
0.442251 0.137683 -0.186325
0.442251 0.137683 -0.171825
0.442251 0.152183 -0.186325
0.442251 0.152183 -0.171825
0.442251 0.152183 -0.157325
0.456751 0.108683 -0.171825
0.456751 0.123183 -0.171825
0.456751 0.108683 -0.157325
0.456751 0.123183 -0.157325
0.456751 0.123183 -0.142825
0.471251 0.108683 -0.142825
0.456751 0.137683 -0.171825
0.456751 0.137683 -0.157325
0.456751 0.137683 -0.142825
0.456751 0.152183 -0.157325
0.456751 0.152183 -0.142825
0.427751 0.166683 -0.215325
0.427751 0.166683 -0.200825
0.427751 0.181183 -0.200825
0.427751 0.166683 -0.186325
0.427751 0.181183 -0.186325
0.427751 0.181183 -0.171825
0.442251 0.166683 -0.171825
0.442251 0.181183 -0.171825
0.442251 0.166683 -0.157325
0.442251 0.166683 -0.142825
0.442251 0.181183 -0.157325
0.442251 0.181183 -0.142825
0.427751 0.195683 -0.171825
0.427751 0.210183 -0.171825
0.427751 0.195683 -0.157325
0.427751 0.210183 -0.157325
0.427751 0.210183 -0.142825
0.442251 0.195683 -0.142825
0.456751 0.166683 -0.142825
0.471251 0.108683 -0.128325
0.471251 0.108683 -0.113825
0.471251 0.123183 -0.128325
0.471251 0.123183 -0.113825
0.471251 0.108683 -0.099325
0.471251 0.108683 -0.084825
0.471251 0.123183 -0.099325
0.471251 0.123183 -0.084825
0.456751 0.137683 -0.128325
0.456751 0.152183 -0.128325
0.456751 0.152183 -0.113825
0.471251 0.137683 -0.113825
0.471251 0.137683 -0.099325
0.471251 0.137683 -0.084825
0.471251 0.152183 -0.099325
0.471251 0.152183 -0.084825
0.471251 0.137683 -0.070325
0.471251 0.137683 -0.055825
0.471251 0.152183 -0.070325
0.471251 0.152183 -0.055825
0.471251 0.137683 -0.041325
0.471251 0.152183 -0.041325
0.471251 0.152183 -0.026825
0.442251 0.181183 -0.128325
0.442251 0.181183 -0.113825
0.442251 0.195683 -0.128325
0.442251 0.195683 -0.113825
0.442251 0.210183 -0.128325
0.442251 0.210183 -0.113825
0.442251 0.195683 -0.099325
0.442251 0.195683 -0.084825
0.442251 0.210183 -0.099325
0.442251 0.210183 -0.084825
0.456751 0.166683 -0.128325
0.456751 0.166683 -0.113825
0.456751 0.166683 -0.099325
0.456751 0.166683 -0.084825
0.456751 0.181183 -0.099325
0.456751 0.181183 -0.084825
0.471251 0.166683 -0.084825
0.456751 0.195683 -0.084825
0.442251 0.210183 -0.070325
0.442251 0.210183 -0.055825
0.456751 0.181183 -0.070325
0.471251 0.166683 -0.070325
0.471251 0.166683 -0.055825
0.471251 0.181183 -0.055825
0.471251 0.166683 -0.041325
0.471251 0.166683 -0.026825
0.471251 0.181183 -0.041325
0.471251 0.181183 -0.026825
0.456751 0.195683 -0.070325
0.456751 0.195683 -0.055825
0.456751 0.195683 -0.041325
0.456751 0.195683 -0.026825
0.456751 0.210183 -0.041325
0.456751 0.210183 -0.026825
0.471251 -0.007317 0.147175
0.471251 0.007183 0.147175
0.471251 0.021683 0.147175
0.471251 0.036183 0.147175
0.471251 -0.007317 0.161675
0.471251 -0.007317 0.176175
0.471251 0.007183 0.161675
0.471251 0.007183 0.176175
0.456751 -0.007317 0.205175
0.456751 0.007183 0.205175
0.471251 -0.007317 0.190675
0.471251 0.007183 0.190675
0.471251 0.021683 0.161675
0.471251 0.021683 0.176175
0.471251 0.036183 0.161675
0.471251 0.036183 0.176175
0.456751 0.021683 0.190675
0.456751 0.021683 0.205175
0.456751 0.036183 0.190675
0.456751 0.036183 0.205175
0.471251 0.021683 0.190675
0.471251 0.050683 0.132675
0.471251 0.050683 0.147175
0.471251 0.065183 0.132675
0.471251 0.065183 0.147175
0.471251 0.079683 0.132675
0.471251 0.079683 0.147175
0.471251 0.094183 0.132675
0.471251 0.094183 0.147175
0.442251 0.065183 0.205175
0.442251 0.079683 0.205175
0.442251 0.094183 0.205175
0.471251 0.050683 0.161675
0.471251 0.050683 0.176175
0.471251 0.065183 0.161675
0.471251 0.065183 0.176175
0.456751 0.050683 0.190675
0.456751 0.050683 0.205175
0.456751 0.065183 0.190675
0.456751 0.065183 0.205175
0.456751 0.079683 0.176175
0.456751 0.094183 0.161675
0.456751 0.094183 0.176175
0.471251 0.079683 0.161675
0.471251 0.094183 0.161675
0.456751 0.079683 0.190675
0.456751 0.079683 0.205175
0.456751 0.094183 0.190675
0.471251 0.152183 -0.012325
0.471251 0.152183 0.002175
0.471251 0.137683 0.031175
0.471251 0.152183 0.016675
0.471251 0.152183 0.031175
0.471251 0.123183 0.074675
0.471251 0.123183 0.089175
0.471251 0.137683 0.045675
0.471251 0.137683 0.060175
0.471251 0.152183 0.045675
0.471251 0.152183 0.060175
0.471251 0.137683 0.074675
0.471251 0.137683 0.089175
0.471251 0.152183 0.074675
0.471251 0.152183 0.089175
0.471251 0.166683 -0.012325
0.471251 0.166683 0.002175
0.471251 0.181183 -0.012325
0.471251 0.181183 0.002175
0.471251 0.166683 0.016675
0.471251 0.166683 0.031175
0.471251 0.181183 0.016675
0.471251 0.181183 0.031175
0.456751 0.195683 -0.012325
0.456751 0.195683 0.002175
0.456751 0.210183 -0.012325
0.456751 0.210183 0.002175
0.456751 0.195683 0.016675
0.456751 0.195683 0.031175
0.456751 0.210183 0.016675
0.456751 0.210183 0.031175
0.442251 0.210183 0.060175
0.442251 0.210183 0.074675
0.442251 0.210183 0.089175
0.456751 0.181183 0.060175
0.471251 0.166683 0.045675
0.471251 0.166683 0.060175
0.471251 0.181183 0.045675
0.456751 0.181183 0.074675
0.456751 0.181183 0.089175
0.471251 0.166683 0.074675
0.471251 0.166683 0.089175
0.456751 0.195683 0.045675
0.456751 0.195683 0.060175
0.456751 0.210183 0.045675
0.456751 0.195683 0.074675
0.456751 0.195683 0.089175
0.413251 0.166683 0.205175
0.413251 0.181183 0.205175
0.413251 0.210183 0.176175
0.398751 0.210183 0.205175
0.413251 0.195683 0.190675
0.413251 0.195683 0.205175
0.413251 0.210183 0.190675
0.413251 0.210183 0.205175
0.471251 0.108683 0.103675
0.471251 0.108683 0.118175
0.471251 0.123183 0.103675
0.471251 0.123183 0.118175
0.456751 0.123183 0.147175
0.471251 0.108683 0.132675
0.471251 0.108683 0.147175
0.471251 0.123183 0.132675
0.456751 0.152183 0.118175
0.471251 0.137683 0.103675
0.471251 0.137683 0.118175
0.471251 0.152183 0.103675
0.456751 0.137683 0.132675
0.456751 0.137683 0.147175
0.456751 0.152183 0.132675
0.456751 0.152183 0.147175
0.471251 0.137683 0.132675
0.442251 0.108683 0.205175
0.442251 0.123183 0.190675
0.442251 0.123183 0.205175
0.442251 0.137683 0.176175
0.442251 0.152183 0.161675
0.442251 0.152183 0.176175
0.427751 0.137683 0.205175
0.427751 0.152183 0.205175
0.442251 0.137683 0.190675
0.442251 0.137683 0.205175
0.442251 0.152183 0.190675
0.456751 0.108683 0.161675
0.456751 0.108683 0.176175
0.456751 0.123183 0.161675
0.456751 0.123183 0.176175
0.456751 0.108683 0.190675
0.456751 0.137683 0.161675
0.456751 0.137683 0.176175
0.456751 0.152183 0.161675
0.442251 0.166683 0.132675
0.442251 0.166683 0.147175
0.442251 0.181183 0.132675
0.442251 0.181183 0.147175
0.442251 0.195683 0.103675
0.442251 0.195683 0.118175
0.442251 0.210183 0.103675
0.442251 0.210183 0.118175
0.427751 0.210183 0.132675
0.427751 0.210183 0.147175
0.442251 0.195683 0.132675
0.442251 0.195683 0.147175
0.442251 0.210183 0.132675
0.456751 0.166683 0.103675
0.456751 0.166683 0.118175
0.456751 0.181183 0.103675
0.456751 0.181183 0.118175
0.456751 0.166683 0.132675
0.427751 0.181183 0.176175
0.442251 0.166683 0.161675
0.442251 0.166683 0.176175
0.442251 0.181183 0.161675
0.427751 0.166683 0.190675
0.427751 0.166683 0.205175
0.427751 0.181183 0.190675
0.427751 0.181183 0.205175
0.427751 0.195683 0.161675
0.427751 0.195683 0.176175
0.427751 0.210183 0.161675
0.021751 -0.239317 0.437175
0.036251 -0.239317 0.437175
0.050751 -0.239317 0.437175
0.065251 -0.239317 0.437175
0.065251 -0.224817 0.437175
0.079751 -0.239317 0.437175
0.079751 -0.224817 0.437175
0.094251 -0.239317 0.422675
0.094251 -0.239317 0.437175
0.094251 -0.224817 0.437175
0.108751 -0.239317 0.422675
0.108751 -0.224817 0.437175
0.123251 -0.239317 0.422675
0.123251 -0.224817 0.422675
0.123251 -0.224817 0.437175
0.108751 -0.210317 0.437175
0.123251 -0.210317 0.437175
0.137751 -0.239317 0.408175
0.152251 -0.239317 0.408175
0.137751 -0.239317 0.422675
0.137751 -0.224817 0.422675
0.152251 -0.224817 0.422675
0.137751 -0.210317 0.437175
0.137751 -0.195817 0.437175
0.152251 -0.210317 0.422675
0.152251 -0.195817 0.437175
0.166751 -0.239317 0.408175
0.166751 -0.224817 0.408175
0.181251 -0.239317 0.393675
0.181251 -0.239317 0.408175
0.181251 -0.224817 0.408175
0.166751 -0.224817 0.422675
0.181251 -0.210317 0.408175
0.166751 -0.210317 0.422675
0.166751 -0.195817 0.422675
0.166751 -0.195817 0.437175
0.181251 -0.210317 0.422675
0.181251 -0.195817 0.422675
0.152251 -0.181317 0.437175
0.166751 -0.181317 0.437175
0.166751 -0.166817 0.437175
0.181251 -0.181317 0.422675
0.181251 -0.181317 0.437175
0.181251 -0.166817 0.437175
0.181251 -0.152317 0.437175
0.210251 -0.239317 0.379175
0.224751 -0.239317 0.379175
0.224751 -0.224817 0.379175
0.239251 -0.239317 0.364675
0.239251 -0.239317 0.379175
0.239251 -0.224817 0.379175
0.239251 -0.210317 0.379175
0.195751 -0.239317 0.393675
0.195751 -0.224817 0.393675
0.195751 -0.224817 0.408175
0.210251 -0.239317 0.393675
0.210251 -0.224817 0.393675
0.195751 -0.210317 0.408175
0.195751 -0.195817 0.408175
0.210251 -0.210317 0.393675
0.210251 -0.210317 0.408175
0.210251 -0.195817 0.408175
0.195751 -0.195817 0.422675
0.224751 -0.224817 0.393675
0.224751 -0.210317 0.393675
0.224751 -0.195817 0.393675
0.224751 -0.195817 0.408175
0.239251 -0.210317 0.393675
0.239251 -0.195817 0.393675
0.210251 -0.181317 0.408175
0.195751 -0.181317 0.422675
0.195751 -0.166817 0.422675
0.195751 -0.166817 0.437175
0.210251 -0.181317 0.422675
0.210251 -0.166817 0.422675
0.195751 -0.152317 0.437175
0.195751 -0.137817 0.437175
0.210251 -0.152317 0.422675
0.210251 -0.137817 0.437175
0.224751 -0.181317 0.408175
0.224751 -0.166817 0.408175
0.239251 -0.181317 0.393675
0.239251 -0.181317 0.408175
0.239251 -0.166817 0.408175
0.224751 -0.166817 0.422675
0.239251 -0.152317 0.408175
0.239251 -0.137817 0.408175
