ply
format ascii 1.0
element vertex 1682
property float x
property float y
property float z
end_header
0.010864 0.267403 -0.256825
-0.009536 0.267403 -0.250025
-0.009536 0.267403 -0.243225
-0.002736 0.267403 -0.243225
-0.002736 0.274203 -0.236425
-0.002736 0.274203 -0.229625
0.004064 0.267403 -0.250025
0.004064 0.267403 -0.243225
0.010864 0.267403 -0.250025
0.010864 0.267403 -0.243225
0.004064 0.274203 -0.229625
0.010864 0.267403 -0.236425
0.010864 0.267403 -0.229625
0.017664 0.185803 -0.331625
0.024464 0.192603 -0.331625
0.017664 0.199403 -0.331625
0.017664 0.199403 -0.324825
0.017664 0.206203 -0.324825
0.024464 0.199403 -0.324825
0.024464 0.206203 -0.324825
0.031263 0.185803 -0.331625
0.031263 0.192603 -0.331625
0.038064 0.192603 -0.331625
0.031263 0.206203 -0.324825
0.038064 0.199403 -0.324825
0.038064 0.206203 -0.324825
0.017664 0.213003 -0.318025
0.017664 0.219803 -0.311225
0.024464 0.213003 -0.318025
0.024464 0.219803 -0.318025
0.024464 0.226603 -0.311225
0.031263 0.219803 -0.311225
0.038064 0.213003 -0.318025
0.031263 0.226603 -0.311225
0.017664 0.226603 -0.304425
0.024464 0.233403 -0.304425
0.031263 0.233403 -0.304425
0.038064 0.233403 -0.304425
0.044864 0.185803 -0.331625
0.044864 0.192603 -0.331625
0.051664 0.185803 -0.331625
0.051664 0.192603 -0.331625
0.044864 0.199403 -0.324825
0.044864 0.206203 -0.324825
0.051664 0.199403 -0.324825
0.051664 0.206203 -0.318025
0.058464 0.185803 -0.331625
0.065264 0.185803 -0.331625
0.065264 0.192603 -0.324825
0.058464 0.199403 -0.324825
0.065264 0.199403 -0.324825
0.058464 0.206203 -0.318025
0.065264 0.206203 -0.318025
0.044864 0.213003 -0.318025
0.044864 0.219803 -0.318025
0.044864 0.219803 -0.311225
0.051664 0.213003 -0.318025
0.051664 0.219803 -0.311225
0.044864 0.226603 -0.311225
0.058464 0.219803 -0.311225
0.065264 0.213003 -0.318025
0.065264 0.219803 -0.311225
0.058464 0.226603 -0.311225
0.044864 0.233403 -0.304425
0.051664 0.226603 -0.304425
0.058464 0.233403 -0.304425
0.065264 0.226603 -0.304425
0.065264 0.233403 -0.304425
0.024464 0.240203 -0.297625
0.017664 0.247003 -0.290825
0.024464 0.247003 -0.290825
0.017664 0.253803 -0.284025
0.024464 0.253803 -0.284025
0.031263 0.240203 -0.297625
0.038064 0.240203 -0.297625
0.031263 0.247003 -0.290825
0.038064 0.247003 -0.290825
0.031263 0.253803 -0.284025
0.038064 0.253803 -0.284025
0.044864 0.240203 -0.297625
0.051664 0.240203 -0.297625
0.044864 0.247003 -0.290825
0.044864 0.247003 -0.284025
0.051664 0.247003 -0.284025
0.044864 0.253803 -0.284025
0.058464 0.240203 -0.297625
0.065264 0.240203 -0.297625
0.058464 0.240203 -0.290825
0.065264 0.240203 -0.290825
0.065264 0.247003 -0.284025
0.058464 0.253803 -0.284025
0.017664 0.253803 -0.277225
0.024464 0.260603 -0.277225
0.024464 0.260603 -0.270425
0.017664 0.260603 -0.263625
0.024464 0.260603 -0.263625
0.031263 0.253803 -0.277225
0.031263 0.260603 -0.270425
0.038064 0.253803 -0.277225
0.038064 0.260603 -0.270425
0.031263 0.260603 -0.263625
0.038064 0.260603 -0.263625
0.038064 0.260603 -0.256825
0.038064 0.267403 -0.256825
0.017664 0.267403 -0.243225
0.024464 0.267403 -0.250025
0.024464 0.267403 -0.243225
0.017664 0.267403 -0.236425
0.017664 0.274203 -0.229625
0.031263 0.267403 -0.243225
0.038064 0.267403 -0.250025
0.038064 0.267403 -0.243225
0.031263 0.267403 -0.236425
0.031263 0.267403 -0.229625
0.038064 0.267403 -0.229625
0.044864 0.253803 -0.270425
0.051664 0.253803 -0.277225
0.051664 0.253803 -0.270425
0.044864 0.260603 -0.263625
0.044864 0.260603 -0.256825
0.051664 0.260603 -0.263625
0.051664 0.260603 -0.256825
0.058464 0.253803 -0.270425
0.065264 0.253803 -0.277225
0.065264 0.253803 -0.270425
0.058464 0.260603 -0.263625
0.065264 0.253803 -0.263625
0.065264 0.260603 -0.256825
0.051664 0.260603 -0.250025
0.058464 0.260603 -0.250025
0.065264 0.260603 -0.250025
0.065264 0.260603 -0.243225
0.044864 0.267403 -0.250025
0.044864 0.267403 -0.243225
0.051664 0.267403 -0.250025
0.051664 0.267403 -0.243225
0.044864 0.267403 -0.236425
0.044864 0.267403 -0.229625
0.051664 0.267403 -0.229625
0.058464 0.267403 -0.243225
0.058464 0.267403 -0.236425
0.058464 0.267403 -0.229625
0.065264 0.267403 -0.236425
-0.036736 0.274203 -0.222825
-0.036736 0.274203 -0.216025
-0.029936 0.274203 -0.222825
-0.036736 0.274203 -0.209225
-0.036736 0.274203 -0.202425
-0.029936 0.274203 -0.209225
-0.029936 0.274203 -0.202425
-0.023137 0.274203 -0.222825
-0.016337 0.274203 -0.216025
-0.023137 0.274203 -0.209225
-0.016337 0.274203 -0.209225
-0.016337 0.274203 -0.202425
-0.036736 0.274203 -0.195625
-0.029936 0.281003 -0.188825
-0.036736 0.281003 -0.182025
-0.036736 0.281003 -0.175225
-0.029936 0.281003 -0.182025
-0.029936 0.281003 -0.175225
-0.023137 0.274203 -0.195625
-0.016337 0.274203 -0.195625
-0.016337 0.274203 -0.188825
-0.023137 0.281003 -0.182025
-0.016337 0.281003 -0.182025
-0.009536 0.274203 -0.222825
-0.002736 0.274203 -0.222825
-0.002736 0.274203 -0.216025
-0.009536 0.274203 -0.209225
-0.002736 0.274203 -0.202425
0.004064 0.274203 -0.216025
0.010864 0.274203 -0.222825
0.004064 0.274203 -0.209225
0.004064 0.274203 -0.202425
0.010864 0.274203 -0.209225
-0.009536 0.274203 -0.195625
-0.009536 0.274203 -0.188825
-0.002736 0.274203 -0.188825
-0.009536 0.281003 -0.182025
-0.009536 0.281003 -0.175225
-0.002736 0.281003 -0.182025
-0.002736 0.281003 -0.175225
0.004064 0.274203 -0.195625
0.004064 0.274203 -0.188825
0.010864 0.274203 -0.188825
0.004064 0.274203 -0.182025
0.010864 0.274203 -0.182025
0.004064 0.281003 -0.175225
-0.036736 0.281003 -0.168425
-0.036736 0.281003 -0.161625
-0.029936 0.281003 -0.161625
-0.036736 0.287803 -0.148025
-0.029936 0.281003 -0.154825
-0.023137 0.281003 -0.168425
-0.016337 0.281003 -0.168425
-0.016337 0.281003 -0.161625
-0.023137 0.287803 -0.148025
-0.016337 0.281003 -0.154825
-0.016337 0.287803 -0.148025
-0.029936 0.287803 -0.141225
-0.023137 0.287803 -0.141225
-0.009536 0.281003 -0.168425
-0.002736 0.281003 -0.161625
-0.009536 0.281003 -0.154825
-0.009536 0.287803 -0.148025
-0.002736 0.281003 -0.154825
0.004064 0.281003 -0.161625
0.010864 0.281003 -0.168425
0.010864 0.281003 -0.161625
0.004064 0.281003 -0.154825
0.004064 0.281003 -0.148025
0.004064 0.287803 -0.148025
0.010864 0.281003 -0.148025
-0.009536 0.287803 -0.141225
0.004064 0.287803 -0.141225
0.010864 0.287803 -0.141225
0.010864 0.287803 -0.134425
0.017664 0.274203 -0.216025
0.024464 0.274203 -0.222825
0.024464 0.274203 -0.216025
0.017664 0.274203 -0.209225
0.024464 0.274203 -0.202425
0.031263 0.274203 -0.222825
0.038064 0.274203 -0.222825
0.038064 0.274203 -0.216025
0.031263 0.274203 -0.209225
0.038064 0.274203 -0.209225
0.038064 0.274203 -0.202425
0.017664 0.274203 -0.195625
0.024464 0.274203 -0.188825
0.017664 0.274203 -0.182025
0.017664 0.274203 -0.175225
0.024464 0.274203 -0.175225
0.031263 0.274203 -0.195625
0.031263 0.274203 -0.188825
0.038064 0.274203 -0.188825
0.031263 0.274203 -0.182025
0.031263 0.274203 -0.175225
0.038064 0.274203 -0.175225
0.044864 0.274203 -0.216025
0.051664 0.267403 -0.222825
0.051664 0.267403 -0.216025
0.044864 0.274203 -0.209225
0.044864 0.274203 -0.202425
0.051664 0.274203 -0.209225
0.058464 0.267403 -0.222825
0.065264 0.267403 -0.222825
0.058464 0.274203 -0.209225
0.058464 0.274203 -0.202425
0.065264 0.267403 -0.209225
0.065264 0.274203 -0.209225
0.065264 0.274203 -0.202425
0.044864 0.274203 -0.188825
0.051664 0.274203 -0.195625
0.051664 0.274203 -0.188825
0.044864 0.274203 -0.182025
0.051664 0.274203 -0.175225
0.058464 0.274203 -0.188825
0.065264 0.274203 -0.195625
0.065264 0.274203 -0.188825
0.058464 0.274203 -0.182025
0.065264 0.274203 -0.175225
0.017664 0.281003 -0.161625
0.024464 0.281003 -0.168425
0.024464 0.281003 -0.161625
0.017664 0.281003 -0.154825
0.024464 0.281003 -0.148025
0.038064 0.274203 -0.168425
0.031263 0.281003 -0.161625
0.038064 0.281003 -0.161625
0.031263 0.281003 -0.154825
0.031263 0.281003 -0.148025
0.038064 0.281003 -0.148025
0.017664 0.287803 -0.134425
0.024464 0.281003 -0.141225
0.024464 0.287803 -0.134425
0.024464 0.287803 -0.127625
0.031263 0.281003 -0.141225
0.031263 0.287803 -0.134425
0.038064 0.281003 -0.141225
0.038064 0.281003 -0.134425
0.031263 0.287803 -0.127625
0.038064 0.287803 -0.127625
0.044864 0.274203 -0.161625
0.051664 0.274203 -0.168425
0.051664 0.274203 -0.154825
0.044864 0.281003 -0.154825
0.044864 0.281003 -0.148025
0.051664 0.281003 -0.148025
0.058464 0.274203 -0.168425
0.065264 0.274203 -0.161625
0.058464 0.274203 -0.154825
0.058464 0.274203 -0.148025
0.065264 0.274203 -0.148025
0.044864 0.281003 -0.141225
0.044864 0.281003 -0.134425
0.051664 0.281003 -0.141225
0.051664 0.281003 -0.134425
0.044864 0.287803 -0.127625
0.044864 0.287803 -0.120825
0.051664 0.281003 -0.127625
0.051664 0.287803 -0.120825
0.058464 0.281003 -0.134425
0.065264 0.281003 -0.141225
0.065264 0.281003 -0.134425
0.058464 0.281003 -0.127625
0.058464 0.287803 -0.120825
0.065264 0.281003 -0.127625
0.065264 0.281003 -0.120825
-0.145536 0.281003 -0.114025
-0.145536 0.281003 -0.107225
-0.138736 0.281003 -0.114025
-0.138736 0.281003 -0.107225
-0.138736 0.281003 -0.100425
-0.138736 0.281003 -0.093625
-0.138736 0.287803 -0.100425
-0.138736 0.287803 -0.093625
-0.131936 0.287803 -0.114025
-0.131936 0.287803 -0.107225
-0.131936 0.287803 -0.093625
-0.125136 0.287803 -0.100425
-0.125136 0.287803 -0.093625
-0.145536 0.281003 -0.086825
-0.145536 0.287803 -0.080025
-0.138736 0.287803 -0.080025
-0.145536 0.287803 -0.066425
-0.138736 0.287803 -0.073225
-0.138736 0.287803 -0.066425
-0.131936 0.287803 -0.086825
-0.131936 0.287803 -0.080025
-0.125136 0.287803 -0.086825
-0.125136 0.287803 -0.080025
-0.131936 0.287803 -0.073225
-0.125136 0.287803 -0.066425
-0.118336 0.287803 -0.114025
-0.118336 0.287803 -0.107225
-0.111536 0.287803 -0.114025
-0.111536 0.287803 -0.107225
-0.118336 0.287803 -0.100425
-0.118336 0.287803 -0.093625
-0.111536 0.287803 -0.100425
-0.104736 0.287803 -0.107225
-0.097936 0.287803 -0.114025
-0.104736 0.287803 -0.100425
-0.118336 0.287803 -0.086825
-0.118336 0.287803 -0.080025
-0.118336 0.287803 -0.073225
-0.145536 0.287803 -0.059625
-0.138736 0.287803 -0.059625
-0.138736 0.287803 -0.052825
-0.145536 0.287803 -0.046025
-0.138736 0.287803 -0.046025
-0.138736 0.287803 -0.039225
-0.131936 0.287803 -0.059625
-0.125136 0.287803 -0.059625
-0.131936 0.287803 -0.039225
-0.145536 0.287803 -0.032425
-0.145536 0.287803 -0.025625
-0.138736 0.287803 -0.032425
-0.138736 0.287803 -0.025625
-0.145536 0.287803 -0.018825
-0.145536 0.287803 -0.012025
-0.138736 0.287803 -0.018825
-0.138736 0.287803 -0.012025
-0.145536 0.287803 -0.005225
-0.138736 0.287803 0.001575
-0.145536 0.287803 0.008375
-0.145536 0.287803 0.015175
-0.138736 0.287803 0.008375
-0.138736 0.287803 0.015175
-0.145536 0.287803 0.021975
-0.138736 0.287803 0.028775
-0.145536 0.281003 0.042375
-0.145536 0.287803 0.035575
-0.138736 0.281003 0.042375
-0.138736 0.287803 0.035575
-0.138736 0.287803 0.042375
-0.131936 0.287803 0.021975
-0.131936 0.287803 0.028775
-0.131936 0.287803 0.035575
-0.131936 0.287803 0.042375
-0.145536 0.281003 0.049175
-0.138736 0.281003 0.055975
-0.138736 0.287803 0.049175
-0.145536 0.281003 0.062775
-0.145536 0.281003 0.069575
-0.138736 0.281003 0.062775
-0.138736 0.281003 0.069575
-0.131936 0.287803 0.055975
-0.125136 0.287803 0.049175
-0.131936 0.281003 0.062775
-0.125136 0.281003 0.069575
-0.125136 0.287803 0.062775
-0.145536 0.274203 0.083175
-0.138736 0.274203 0.083175
-0.145536 0.274203 0.096775
-0.138736 0.274203 0.089975
-0.138736 0.274203 0.096775
-0.145536 0.281003 0.076375
-0.138736 0.281003 0.076375
-0.131936 0.274203 0.089975
-0.131936 0.274203 0.096775
-0.125136 0.274203 0.089975
-0.131936 0.281003 0.076375
-0.131936 0.281003 0.083175
-0.125136 0.281003 0.083175
-0.125136 0.281003 0.089975
-0.118336 0.287803 0.055975
-0.118336 0.281003 0.069575
-0.118336 0.287803 0.062775
-0.111536 0.287803 0.062775
-0.104736 0.287803 0.069575
-0.111536 0.274203 0.096775
-0.118336 0.281003 0.076375
-0.118336 0.281003 0.083175
-0.111536 0.281003 0.076375
-0.111536 0.281003 0.083175
-0.111536 0.281003 0.089975
-0.104736 0.281003 0.083175
-0.097936 0.287803 0.076375
-0.097936 0.287803 0.083175
-0.104736 0.281003 0.096775
-0.097936 0.281003 0.089975
-0.091136 0.287803 0.083175
-0.084336 0.287803 0.083175
-0.091136 0.281003 0.096775
-0.091136 0.287803 0.089975
-0.084336 0.281003 0.096775
-0.077537 0.287803 0.089975
-0.077537 0.287803 0.096775
-0.070737 0.287803 0.089975
-0.070737 0.287803 0.096775
-0.063936 0.287803 0.096775
0.058464 0.287803 -0.114025
0.065264 0.287803 -0.114025
0.065264 0.287803 -0.107225
0.058464 0.287803 0.096775
0.065264 0.287803 0.089975
0.065264 0.287803 0.096775
-0.091136 0.294603 -0.120825
-0.084336 0.294603 -0.120825
-0.077537 0.294603 -0.120825
-0.070737 0.294603 -0.127625
-0.070737 0.294603 -0.120825
-0.063936 0.294603 -0.134425
-0.057136 0.294603 -0.134425
-0.063936 0.294603 -0.127625
-0.063936 0.294603 -0.120825
-0.057136 0.294603 -0.127625
-0.057136 0.301403 -0.120825
-0.050336 0.294603 -0.134425
-0.050336 0.294603 -0.127625
-0.050336 0.301403 -0.120825
-0.043536 0.294603 -0.127625
-0.043536 0.301403 -0.120825
-0.036736 0.294603 -0.134425
-0.029936 0.294603 -0.134425
-0.036736 0.294603 -0.127625
-0.036736 0.301403 -0.120825
-0.029936 0.294603 -0.127625
-0.029936 0.301403 -0.120825
-0.023137 0.294603 -0.134425
-0.016337 0.294603 -0.141225
-0.016337 0.294603 -0.134425
-0.023137 0.301403 -0.120825
-0.016337 0.294603 -0.127625
-0.016337 0.301403 -0.120825
-0.016337 0.308203 -0.120825
-0.009536 0.294603 -0.134425
-0.002736 0.294603 -0.134425
-0.009536 0.301403 -0.127625
-0.009536 0.301403 -0.120825
-0.002736 0.294603 -0.127625
-0.002736 0.301403 -0.120825
-0.002736 0.308203 -0.120825
0.004064 0.294603 -0.134425
0.010864 0.294603 -0.134425
0.004064 0.294603 -0.127625
0.004064 0.301403 -0.120825
0.010864 0.301403 -0.120825
0.017664 0.294603 -0.127625
0.017664 0.301403 -0.120825
0.024464 0.294603 -0.120825
0.024464 0.301403 -0.120825
0.031263 0.294603 -0.120825
-0.111536 0.294603 -0.093625
-0.097936 0.294603 -0.107225
-0.104736 0.294603 -0.093625
-0.097936 0.294603 -0.100425
-0.097936 0.294603 -0.093625
-0.118336 0.294603 -0.066425
-0.111536 0.294603 -0.073225
-0.111536 0.294603 -0.066425
-0.104736 0.294603 -0.086825
-0.104736 0.294603 -0.080025
-0.097936 0.294603 -0.086825
-0.097936 0.301403 -0.080025
-0.104736 0.301403 -0.066425
-0.097936 0.301403 -0.073225
-0.097936 0.301403 -0.066425
-0.125136 0.294603 -0.052825
-0.125136 0.294603 -0.046025
-0.131936 0.294603 -0.032425
-0.125136 0.294603 -0.032425
-0.125136 0.294603 -0.025625
-0.131936 0.294603 -0.018825
-0.125136 0.294603 -0.018825
-0.125136 0.294603 -0.012025
-0.118336 0.294603 -0.059625
-0.118336 0.294603 -0.052825
-0.111536 0.301403 -0.059625
-0.111536 0.301403 -0.052825
-0.118336 0.294603 -0.046025
-0.118336 0.294603 -0.039225
-0.118336 0.301403 -0.039225
-0.111536 0.301403 -0.039225
-0.104736 0.301403 -0.059625
-0.104736 0.301403 -0.046025
-0.104736 0.308203 -0.052825
-0.097936 0.308203 -0.059625
-0.097936 0.308203 -0.052825
-0.097936 0.315003 -0.052825
-0.104736 0.308203 -0.046025
-0.104736 0.308203 -0.039225
-0.097936 0.315003 -0.046025
-0.118336 0.301403 -0.032425
-0.111536 0.301403 -0.025625
-0.118336 0.301403 -0.018825
-0.118336 0.301403 -0.012025
-0.111536 0.301403 -0.018825
-0.111536 0.308203 -0.032425
-0.111536 0.308203 -0.025625
-0.111536 0.308203 -0.012025
-0.104736 0.315003 -0.032425
-0.104736 0.315003 -0.018825
-0.104736 0.315003 -0.012025
-0.097936 0.321803 -0.039225
-0.104736 0.321803 -0.025625
-0.097936 0.321803 -0.032425
-0.097936 0.321803 -0.025625
-0.097936 0.328603 -0.032425
-0.104736 0.321803 -0.018825
-0.097936 0.321803 -0.012025
-0.097936 0.328603 -0.018825
-0.097936 0.328603 -0.012025
-0.097936 0.335403 -0.012025
-0.091136 0.294603 -0.114025
-0.091136 0.294603 -0.107225
-0.084336 0.294603 -0.114025
-0.084336 0.294603 -0.107225
-0.091136 0.294603 -0.100425
-0.091136 0.301403 -0.093625
-0.084336 0.301403 -0.100425
-0.084336 0.301403 -0.093625
-0.077537 0.294603 -0.107225
-0.070737 0.294603 -0.114025
-0.070737 0.301403 -0.107225
-0.077537 0.301403 -0.100425
-0.077537 0.301403 -0.093625
-0.070737 0.301403 -0.100425
-0.070737 0.308203 -0.093625
-0.091136 0.301403 -0.086825
-0.084336 0.301403 -0.086825
-0.091136 0.308203 -0.080025
-0.084336 0.308203 -0.086825
-0.084336 0.308203 -0.080025
-0.091136 0.308203 -0.073225
-0.091136 0.308203 -0.066425
-0.091136 0.315003 -0.066425
-0.084336 0.315003 -0.073225
-0.077537 0.308203 -0.086825
-0.077537 0.315003 -0.086825
-0.077537 0.315003 -0.080025
-0.070737 0.315003 -0.086825
-0.084336 0.321803 -0.066425
-0.070737 0.321803 -0.080025
-0.070737 0.328603 -0.080025
-0.077537 0.321803 -0.073225
-0.077537 0.328603 -0.073225
-0.077537 0.328603 -0.066425
-0.077537 0.335403 -0.066425
-0.070737 0.335403 -0.073225
-0.070737 0.335403 -0.066425
-0.063936 0.301403 -0.114025
-0.063936 0.301403 -0.107225
-0.057136 0.301403 -0.107225
-0.057136 0.308203 -0.107225
-0.063936 0.308203 -0.100425
-0.063936 0.315003 -0.093625
-0.057136 0.315003 -0.100425
-0.057136 0.315003 -0.093625
-0.050336 0.301403 -0.114025
-0.050336 0.308203 -0.107225
-0.043536 0.308203 -0.114025
-0.043536 0.308203 -0.107225
-0.050336 0.315003 -0.100425
-0.043536 0.315003 -0.100425
-0.063936 0.315003 -0.086825
-0.057136 0.321803 -0.093625
-0.043536 0.321803 -0.100425
-0.043536 0.328603 -0.093625
-0.063936 0.321803 -0.086825
-0.057136 0.321803 -0.086825
-0.057136 0.328603 -0.086825
-0.063936 0.335403 -0.080025
-0.063936 0.342203 -0.080025
-0.057136 0.335403 -0.086825
-0.057136 0.342203 -0.080025
-0.063936 0.342203 -0.073225
-0.050336 0.335403 -0.086825
-0.050336 0.342203 -0.086825
-0.043536 0.335403 -0.086825
-0.091136 0.315003 -0.059625
-0.091136 0.321803 -0.059625
-0.091136 0.321803 -0.052825
-0.091136 0.328603 -0.052825
-0.084336 0.321803 -0.059625
-0.084336 0.328603 -0.059625
-0.091136 0.321803 -0.046025
-0.091136 0.328603 -0.039225
-0.084336 0.335403 -0.052825
-0.084336 0.342203 -0.052825
-0.091136 0.335403 -0.046025
-0.091136 0.335403 -0.039225
-0.084336 0.342203 -0.046025
-0.077537 0.328603 -0.059625
-0.077537 0.342203 -0.059625
-0.091136 0.335403 -0.032425
-0.091136 0.342203 -0.032425
-0.091136 0.342203 -0.025625
-0.091136 0.342203 -0.018825
-0.070737 0.349003 -0.066425
-0.070737 0.355803 -0.066425
-0.057136 0.349003 -0.080025
-0.063936 0.349003 -0.073225
-0.063936 0.355803 -0.073225
-0.057136 0.362603 -0.080025
-0.063936 0.362603 -0.066425
-0.063936 0.369403 -0.073225
-0.063936 0.369403 -0.066425
-0.057136 0.362603 -0.073225
-0.057136 0.369403 -0.073225
-0.050336 0.349003 -0.086825
-0.050336 0.349003 -0.080025
-0.050336 0.355803 -0.080025
-0.043536 0.349003 -0.086825
-0.043536 0.355803 -0.086825
-0.050336 0.362603 -0.080025
-0.050336 0.369403 -0.080025
-0.043536 0.362603 -0.086825
-0.043536 0.369403 -0.080025
-0.063936 0.376203 -0.066425
-0.057136 0.376203 -0.073225
-0.057136 0.383003 -0.073225
-0.057136 0.389803 -0.073225
-0.057136 0.389803 -0.066425
-0.050336 0.376203 -0.080025
-0.043536 0.383003 -0.080025
-0.050336 0.383003 -0.073225
-0.050336 0.389803 -0.080025
-0.043536 0.389803 -0.080025
-0.050336 0.396603 -0.073225
-0.091136 0.349003 -0.039225
-0.084336 0.349003 -0.039225
-0.084336 0.355803 -0.046025
-0.084336 0.355803 -0.039225
-0.084336 0.362603 -0.046025
-0.084336 0.362603 -0.039225
-0.084336 0.369403 -0.039225
-0.077537 0.349003 -0.059625
-0.077537 0.355803 -0.052825
-0.070737 0.355803 -0.059625
-0.077537 0.362603 -0.052825
-0.077537 0.369403 -0.052825
-0.070737 0.362603 -0.059625
-0.070737 0.369403 -0.059625
-0.091136 0.349003 -0.032425
-0.091136 0.349003 -0.025625
-0.091136 0.355803 -0.025625
-0.091136 0.349003 -0.018825
-0.091136 0.349003 -0.012025
-0.091136 0.355803 -0.012025
-0.084336 0.362603 -0.025625
-0.084336 0.369403 -0.025625
-0.091136 0.362603 -0.018825
-0.091136 0.369403 -0.018825
-0.091136 0.369403 -0.012025
-0.084336 0.383003 -0.039225
-0.077537 0.376203 -0.052825
-0.070737 0.376203 -0.059625
-0.070737 0.376203 -0.052825
-0.070737 0.383003 -0.052825
-0.077537 0.376203 -0.046025
-0.077537 0.383003 -0.046025
-0.070737 0.389803 -0.059625
-0.070737 0.396603 -0.059625
-0.070737 0.396603 -0.052825
-0.077537 0.389803 -0.046025
-0.077537 0.389803 -0.039225
-0.077537 0.396603 -0.046025
-0.077537 0.396603 -0.039225
-0.084336 0.376203 -0.032425
-0.084336 0.376203 -0.025625
-0.084336 0.383003 -0.032425
-0.084336 0.383003 -0.025625
-0.084336 0.376203 -0.018825
-0.084336 0.383003 -0.012025
-0.084336 0.389803 -0.032425
-0.084336 0.389803 -0.025625
-0.084336 0.396603 -0.032425
-0.084336 0.389803 -0.018825
-0.084336 0.389803 -0.012025
-0.084336 0.396603 -0.018825
-0.057136 0.369403 -0.012025
-0.043536 0.355803 -0.025625
-0.050336 0.355803 -0.018825
-0.043536 0.355803 -0.018825
-0.050336 0.362603 -0.025625
-0.050336 0.369403 -0.025625
-0.043536 0.362603 -0.032425
-0.043536 0.369403 -0.032425
-0.050336 0.362603 -0.018825
-0.050336 0.362603 -0.012025
-0.063936 0.383003 -0.059625
-0.063936 0.389803 -0.059625
-0.063936 0.396603 -0.059625
-0.043536 0.376203 -0.039225
-0.050336 0.396603 -0.039225
-0.043536 0.389803 -0.046025
-0.043536 0.389803 -0.039225
-0.043536 0.396603 -0.039225
-0.057136 0.376203 -0.018825
-0.057136 0.376203 -0.012025
-0.057136 0.383003 -0.012025
-0.057136 0.389803 -0.025625
-0.057136 0.396603 -0.025625
-0.057136 0.389803 -0.018825
-0.057136 0.389803 -0.012025
-0.057136 0.396603 -0.018825
-0.050336 0.376203 -0.025625
-0.050336 0.383003 -0.032425
-0.043536 0.376203 -0.032425
-0.050336 0.376203 -0.018825
-0.050336 0.389803 -0.032425
-0.050336 0.389803 -0.025625
-0.050336 0.396603 -0.032425
-0.125136 0.294603 -0.005225
-0.125136 0.294603 0.001575
-0.131936 0.294603 0.008375
-0.125136 0.294603 0.008375
-0.125136 0.294603 0.021975
-0.125136 0.294603 0.028775
-0.125136 0.294603 0.035575
-0.125136 0.294603 0.042375
-0.118336 0.301403 -0.005225
-0.118336 0.301403 0.001575
-0.111536 0.301403 0.001575
-0.118336 0.301403 0.008375
-0.118336 0.301403 0.015175
-0.111536 0.301403 0.015175
-0.111536 0.308203 -0.005225
-0.111536 0.308203 0.001575
-0.111536 0.308203 0.008375
-0.111536 0.308203 0.015175
-0.104736 0.315003 -0.005225
-0.104736 0.315003 0.001575
-0.104736 0.315003 0.015175
-0.118336 0.294603 0.021975
-0.118336 0.294603 0.028775
-0.118336 0.301403 0.021975
-0.118336 0.294603 0.042375
-0.111536 0.294603 0.042375
-0.111536 0.301403 0.035575
-0.111536 0.308203 0.021975
-0.104736 0.301403 0.042375
-0.104736 0.308203 0.021975
-0.104736 0.308203 0.028775
-0.104736 0.315003 0.028775
-0.097936 0.315003 0.021975
-0.104736 0.308203 0.035575
-0.097936 0.308203 0.042375
-0.097936 0.315003 0.035575
-0.097936 0.315003 0.042375
-0.104736 0.321803 -0.005225
-0.104736 0.321803 0.001575
-0.097936 0.328603 -0.005225
-0.097936 0.328603 0.001575
-0.097936 0.321803 0.008375
-0.097936 0.321803 0.015175
-0.097936 0.328603 0.008375
-0.097936 0.335403 -0.005225
-0.097936 0.321803 0.021975
-0.097936 0.321803 0.028775
-0.097936 0.328603 0.021975
-0.111536 0.294603 0.049175
-0.111536 0.294603 0.055975
-0.104736 0.294603 0.049175
-0.104736 0.294603 0.055975
-0.097936 0.301403 0.049175
-0.097936 0.301403 0.055975
-0.104736 0.294603 0.062775
-0.097936 0.294603 0.062775
-0.097936 0.294603 0.069575
-0.097936 0.308203 0.049175
-0.091136 0.315003 0.042375
-0.091136 0.342203 -0.005225
-0.091136 0.342203 0.001575
-0.091136 0.335403 0.008375
-0.091136 0.342203 0.015175
-0.091136 0.328603 0.028775
-0.091136 0.321803 0.035575
-0.091136 0.321803 0.042375
-0.091136 0.328603 0.035575
-0.084336 0.328603 0.042375
-0.091136 0.335403 0.021975
-0.091136 0.335403 0.028775
-0.091136 0.342203 0.028775
-0.091136 0.335403 0.035575
-0.084336 0.335403 0.042375
-0.084336 0.342203 0.035575
-0.091136 0.294603 0.069575
-0.091136 0.301403 0.062775
-0.084336 0.301403 0.069575
-0.091136 0.308203 0.055975
-0.091136 0.315003 0.049175
-0.084336 0.315003 0.055975
-0.084336 0.308203 0.062775
-0.077537 0.308203 0.062775
-0.077537 0.308203 0.069575
-0.077537 0.315003 0.062775
-0.070737 0.308203 0.069575
-0.070737 0.315003 0.069575
-0.084336 0.294603 0.076375
-0.077537 0.294603 0.076375
-0.077537 0.301403 0.076375
-0.070737 0.294603 0.083175
-0.070737 0.301403 0.076375
-0.070737 0.308203 0.076375
-0.091136 0.321803 0.049175
-0.084336 0.328603 0.049175
-0.084336 0.335403 0.049175
-0.077537 0.321803 0.055975
-0.077537 0.328603 0.049175
-0.077537 0.321803 0.062775
-0.070737 0.321803 0.062775
-0.077537 0.335403 0.055975
-0.077537 0.342203 0.049175
-0.070737 0.342203 0.055975
-0.070737 0.335403 0.062775
-0.063936 0.301403 0.083175
-0.057136 0.301403 0.083175
-0.063936 0.294603 0.089975
-0.057136 0.294603 0.096775
-0.063936 0.308203 0.076375
-0.057136 0.308203 0.076375
-0.057136 0.315003 0.076375
-0.050336 0.301403 0.089975
-0.043536 0.294603 0.096775
-0.050336 0.308203 0.083175
-0.050336 0.315003 0.076375
-0.043536 0.308203 0.089975
-0.063936 0.321803 0.069575
-0.057136 0.328603 0.069575
-0.063936 0.335403 0.062775
-0.063936 0.335403 0.069575
-0.063936 0.342203 0.062775
-0.057136 0.335403 0.069575
-0.057136 0.342203 0.069575
-0.057136 0.321803 0.076375
-0.050336 0.321803 0.076375
-0.050336 0.328603 0.076375
-0.043536 0.328603 0.076375
-0.050336 0.335403 0.076375
-0.043536 0.342203 0.076375
-0.091136 0.349003 -0.005225
-0.091136 0.349003 0.001575
-0.091136 0.355803 -0.005225
-0.091136 0.355803 0.001575
-0.091136 0.349003 0.008375
-0.091136 0.349003 0.015175
-0.091136 0.355803 0.008375
-0.091136 0.355803 0.015175
-0.091136 0.362603 -0.005225
-0.091136 0.362603 0.001575
-0.091136 0.369403 -0.005225
-0.091136 0.362603 0.008375
-0.091136 0.369403 0.008375
-0.084336 0.362603 0.015175
-0.091136 0.349003 0.021975
-0.084336 0.349003 0.028775
-0.084336 0.355803 0.021975
-0.084336 0.349003 0.035575
-0.084336 0.355803 0.035575
-0.084336 0.362603 0.021975
-0.084336 0.369403 0.021975
-0.077537 0.349003 0.042375
-0.077537 0.369403 0.028775
-0.077537 0.362603 0.035575
-0.077537 0.369403 0.042375
-0.070737 0.369403 0.042375
-0.091136 0.376203 0.001575
-0.091136 0.383003 0.001575
-0.084336 0.376203 0.008375
-0.084336 0.376203 0.015175
-0.084336 0.383003 0.008375
-0.084336 0.389803 0.001575
-0.084336 0.396603 0.001575
-0.084336 0.389803 0.008375
-0.084336 0.389803 0.015175
-0.084336 0.396603 0.015175
-0.084336 0.383003 0.021975
-0.084336 0.383003 0.028775
-0.084336 0.389803 0.021975
-0.084336 0.396603 0.021975
-0.077537 0.376203 0.028775
-0.077537 0.376203 0.035575
-0.077537 0.383003 0.035575
-0.077537 0.383003 0.042375
-0.077537 0.396603 0.028775
-0.077537 0.389803 0.035575
-0.077537 0.389803 0.042375
-0.077537 0.396603 0.035575
-0.070737 0.389803 0.042375
-0.070737 0.396603 0.042375
-0.050336 0.362603 -0.005225
-0.050336 0.369403 -0.005225
-0.050336 0.369403 0.001575
-0.043536 0.362603 -0.005225
-0.043536 0.369403 -0.005225
-0.057136 0.376203 -0.005225
-0.057136 0.389803 -0.005225
-0.057136 0.396603 -0.005225
-0.057136 0.396603 0.001575
-0.050336 0.376203 0.001575
-0.050336 0.383003 0.001575
-0.043536 0.376203 0.001575
-0.050336 0.383003 0.008375
-0.050336 0.389803 0.001575
-0.043536 0.389803 0.001575
-0.050336 0.396603 0.008375
-0.043536 0.389803 0.008375
-0.077537 0.349003 0.049175
-0.077537 0.355803 0.049175
-0.070737 0.349003 0.055975
-0.070737 0.362603 0.049175
-0.070737 0.369403 0.049175
-0.070737 0.376203 0.049175
-0.070737 0.383003 0.049175
-0.070737 0.396603 0.049175
-0.063936 0.349003 0.062775
-0.063936 0.355803 0.062775
-0.057136 0.349003 0.069575
-0.057136 0.355803 0.062775
-0.063936 0.362603 0.055975
-0.063936 0.369403 0.055975
-0.063936 0.362603 0.062775
-0.057136 0.362603 0.069575
-0.057136 0.369403 0.062775
-0.050336 0.349003 0.069575
-0.050336 0.355803 0.069575
-0.050336 0.369403 0.069575
-0.043536 0.355803 0.076375
-0.063936 0.376203 0.049175
-0.063936 0.383003 0.055975
-0.057136 0.376203 0.062775
-0.057136 0.383003 0.062775
-0.063936 0.389803 0.049175
-0.063936 0.389803 0.055975
-0.063936 0.396603 0.055975
-0.057136 0.389803 0.062775
-0.057136 0.396603 0.062775
-0.050336 0.383003 0.069575
-0.043536 0.376203 0.069575
-0.050336 0.389803 0.062775
-0.043536 0.389803 0.069575
-0.043536 0.396603 0.069575
-0.063936 0.403403 -0.066425
-0.057136 0.403403 -0.066425
-0.057136 0.410203 -0.066425
-0.057136 0.417003 -0.066425
-0.057136 0.423803 -0.066425
-0.043536 0.403403 -0.080025
-0.050336 0.403403 -0.073225
-0.050336 0.410203 -0.073225
-0.043536 0.410203 -0.073225
-0.050336 0.417003 -0.073225
-0.050336 0.423803 -0.073225
-0.043536 0.417003 -0.073225
-0.057136 0.430603 -0.066425
-0.057136 0.437403 -0.066425
-0.057136 0.444203 -0.066425
-0.057136 0.451003 -0.066425
-0.043536 0.430603 -0.080025
-0.050336 0.430603 -0.073225
-0.050336 0.437403 -0.073225
-0.043536 0.437403 -0.073225
-0.043536 0.451003 -0.073225
-0.070737 0.403403 -0.052825
-0.070737 0.410203 -0.052825
-0.077537 0.403403 -0.046025
-0.077537 0.410203 -0.046025
-0.077537 0.410203 -0.039225
-0.077537 0.417003 -0.046025
-0.077537 0.417003 -0.039225
-0.077537 0.423803 -0.046025
-0.070737 0.417003 -0.046025
-0.070737 0.423803 -0.046025
-0.084336 0.403403 -0.032425
-0.084336 0.403403 -0.025625
-0.084336 0.410203 -0.032425
-0.084336 0.410203 -0.025625
-0.084336 0.403403 -0.018825
-0.084336 0.410203 -0.012025
-0.084336 0.417003 -0.025625
-0.084336 0.417003 -0.018825
-0.084336 0.423803 -0.018825
-0.084336 0.423803 -0.012025
-0.077537 0.423803 -0.032425
-0.070737 0.430603 -0.052825
-0.077537 0.430603 -0.039225
-0.077537 0.437403 -0.039225
-0.070737 0.430603 -0.046025
-0.070737 0.437403 -0.046025
-0.070737 0.451003 -0.052825
-0.077537 0.444203 -0.039225
-0.077537 0.451003 -0.039225
-0.070737 0.444203 -0.046025
-0.070737 0.451003 -0.046025
-0.084336 0.430603 -0.025625
-0.084336 0.430603 -0.018825
-0.084336 0.437403 -0.018825
-0.084336 0.437403 -0.012025
-0.084336 0.451003 -0.025625
-0.084336 0.444203 -0.018825
-0.084336 0.444203 -0.012025
-0.084336 0.451003 -0.018825
-0.077537 0.437403 -0.032425
-0.077537 0.444203 -0.032425
-0.077537 0.451003 -0.032425
-0.063936 0.403403 -0.059625
-0.063936 0.410203 -0.059625
-0.063936 0.417003 -0.059625
-0.063936 0.417003 -0.052825
-0.063936 0.423803 -0.059625
-0.063936 0.423803 -0.052825
-0.050336 0.410203 -0.039225
-0.043536 0.403403 -0.039225
-0.043536 0.417003 -0.039225
-0.057136 0.410203 -0.025625
-0.057136 0.403403 -0.018825
-0.057136 0.403403 -0.012025
-0.057136 0.410203 -0.012025
-0.057136 0.417003 -0.025625
-0.057136 0.423803 -0.025625
-0.057136 0.417003 -0.018825
-0.057136 0.423803 -0.018825
-0.057136 0.423803 -0.012025
-0.050336 0.403403 -0.032425
-0.050336 0.410203 -0.032425
-0.050336 0.417003 -0.032425
-0.050336 0.423803 -0.032425
-0.063936 0.430603 -0.059625
-0.063936 0.437403 -0.059625
-0.057136 0.430603 -0.059625
-0.063936 0.444203 -0.059625
-0.057136 0.444203 -0.059625
-0.043536 0.430603 -0.039225
-0.043536 0.437403 -0.039225
-0.050336 0.444203 -0.039225
-0.043536 0.451003 -0.039225
-0.057136 0.430603 -0.018825
-0.057136 0.437403 -0.018825
-0.057136 0.444203 -0.025625
-0.057136 0.451003 -0.025625
-0.057136 0.444203 -0.012025
-0.057136 0.451003 -0.018825
-0.057136 0.451003 -0.012025
-0.050336 0.430603 -0.032425
-0.050336 0.437403 -0.025625
-0.050336 0.451003 -0.032425
-0.057136 0.457803 -0.066425
-0.057136 0.464603 -0.066425
-0.057136 0.471403 -0.066425
-0.057136 0.478203 -0.066425
-0.050336 0.457803 -0.073225
-0.050336 0.457803 -0.066425
-0.043536 0.457803 -0.073225
-0.043536 0.464603 -0.073225
-0.050336 0.471403 -0.073225
-0.050336 0.478203 -0.073225
-0.043536 0.478203 -0.073225
-0.057136 0.485003 -0.066425
-0.057136 0.491803 -0.066425
-0.063936 0.498603 -0.066425
-0.057136 0.498603 -0.066425
-0.057136 0.505403 -0.066425
-0.043536 0.491803 -0.080025
-0.050336 0.491803 -0.073225
-0.043536 0.485003 -0.073225
-0.050336 0.505403 -0.073225
-0.043536 0.498603 -0.073225
-0.070737 0.457803 -0.052825
-0.077537 0.457803 -0.039225
-0.077537 0.464603 -0.039225
-0.070737 0.457803 -0.046025
-0.070737 0.464603 -0.046025
-0.070737 0.471403 -0.052825
-0.070737 0.478203 -0.052825
-0.077537 0.471403 -0.039225
-0.077537 0.478203 -0.046025
-0.077537 0.478203 -0.039225
-0.070737 0.471403 -0.046025
-0.084336 0.457803 -0.025625
-0.084336 0.457803 -0.012025
-0.084336 0.464603 -0.018825
-0.084336 0.471403 -0.025625
-0.084336 0.478203 -0.032425
-0.084336 0.478203 -0.025625
-0.084336 0.471403 -0.018825
-0.084336 0.471403 -0.012025
-0.084336 0.478203 -0.018825
-0.084336 0.478203 -0.012025
-0.077537 0.457803 -0.032425
-0.077537 0.464603 -0.032425
-0.084336 0.491803 -0.039225
-0.084336 0.498603 -0.039225
-0.070737 0.485003 -0.052825
-0.070737 0.491803 -0.059625
-0.077537 0.491803 -0.046025
-0.077537 0.491803 -0.039225
-0.077537 0.505403 -0.052825
-0.070737 0.498603 -0.059625
-0.070737 0.498603 -0.052825
-0.077537 0.498603 -0.046025
-0.084336 0.485003 -0.032425
-0.084336 0.491803 -0.025625
-0.084336 0.485003 -0.018825
-0.084336 0.491803 -0.018825
-0.084336 0.491803 -0.012025
-0.091136 0.498603 -0.025625
-0.084336 0.498603 -0.032425
-0.091136 0.498603 -0.012025
-0.091136 0.505403 -0.018825
-0.084336 0.498603 -0.018825
-0.063936 0.457803 -0.059625
-0.063936 0.464603 -0.052825
-0.057136 0.457803 -0.059625
-0.063936 0.471403 -0.059625
-0.063936 0.478203 -0.059625
-0.057136 0.471403 -0.059625
-0.043536 0.457803 -0.039225
-0.043536 0.464603 -0.039225
-0.050336 0.471403 -0.039225
-0.050336 0.478203 -0.039225
-0.043536 0.478203 -0.039225
-0.057136 0.457803 -0.025625
-0.057136 0.464603 -0.025625
-0.057136 0.457803 -0.018825
-0.057136 0.457803 -0.012025
-0.057136 0.464603 -0.018825
-0.057136 0.471403 -0.025625
-0.057136 0.478203 -0.025625
-0.063936 0.471403 -0.012025
-0.063936 0.478203 -0.012025
-0.057136 0.471403 -0.018825
-0.057136 0.478203 -0.018825
-0.050336 0.457803 -0.032425
-0.050336 0.464603 -0.032425
-0.050336 0.478203 -0.032425
-0.063936 0.485003 -0.059625
-0.063936 0.491803 -0.059625
-0.063936 0.498603 -0.059625
-0.063936 0.505403 -0.059625
-0.050336 0.491803 -0.039225
-0.043536 0.485003 -0.046025
-0.043536 0.491803 -0.039225
-0.050336 0.498603 -0.039225
-0.050336 0.505403 -0.039225
-0.043536 0.498603 -0.046025
-0.043536 0.498603 -0.039225
-0.057136 0.485003 -0.025625
-0.057136 0.491803 -0.025625
-0.063936 0.485003 -0.018825
-0.063936 0.491803 -0.012025
-0.057136 0.491803 -0.018825
-0.057136 0.498603 -0.032425
-0.057136 0.498603 -0.025625
-0.057136 0.505403 -0.032425
-0.057136 0.505403 -0.025625
-0.063936 0.498603 -0.018825
-0.063936 0.498603 -0.012025
-0.063936 0.505403 -0.018825
-0.050336 0.491803 -0.032425
-0.084336 0.403403 -0.005225
-0.084336 0.410203 -0.005225
-0.084336 0.410203 0.001575
-0.084336 0.403403 0.008375
-0.084336 0.410203 0.015175
-0.084336 0.417003 -0.005225
-0.084336 0.417003 0.001575
-0.084336 0.423803 -0.005225
-0.084336 0.423803 0.001575
-0.084336 0.417003 0.008375
-0.084336 0.417003 0.015175
-0.084336 0.423803 0.008375
-0.084336 0.423803 0.015175
-0.084336 0.403403 0.021975
-0.084336 0.410203 0.021975
-0.077537 0.403403 0.028775
-0.077537 0.410203 0.028775
-0.077537 0.410203 0.035575
-0.070737 0.410203 0.042375
-0.077537 0.417003 0.021975
-0.077537 0.417003 0.028775
-0.077537 0.423803 0.021975
-0.077537 0.417003 0.035575
-0.070737 0.417003 0.042375
-0.070737 0.423803 0.035575
-0.070737 0.423803 0.042375
-0.084336 0.430603 -0.005225
-0.084336 0.430603 0.001575
-0.084336 0.437403 -0.005225
-0.084336 0.437403 0.001575
-0.084336 0.430603 0.008375
-0.084336 0.430603 0.015175
-0.084336 0.437403 0.008375
-0.084336 0.437403 0.015175
-0.084336 0.444203 0.001575
-0.084336 0.451003 -0.005225
-0.084336 0.451003 0.001575
-0.084336 0.451003 0.008375
-0.084336 0.451003 0.015175
-0.084336 0.451003 0.021975
-0.077537 0.430603 0.021975
-0.077537 0.430603 0.028775
-0.077537 0.437403 0.028775
-0.070737 0.430603 0.035575
-0.070737 0.430603 0.042375
-0.070737 0.437403 0.042375
-0.077537 0.444203 0.021975
-0.077537 0.451003 0.028775
-0.070737 0.444203 0.035575
-0.070737 0.451003 0.035575
-0.070737 0.451003 0.042375
-0.057136 0.410203 -0.005225
-0.057136 0.410203 0.001575
-0.057136 0.417003 -0.005225
-0.057136 0.423803 -0.005225
-0.057136 0.423803 0.001575
-0.050336 0.403403 0.001575
-0.050336 0.410203 0.001575
-0.050336 0.410203 0.008375
-0.043536 0.403403 0.008375
-0.050336 0.417003 0.001575
-0.050336 0.423803 0.001575
-0.043536 0.417003 0.008375
-0.057136 0.430603 -0.005225
-0.057136 0.430603 0.001575
-0.057136 0.437403 0.001575
-0.057136 0.444203 -0.005225
-0.057136 0.451003 -0.005225
-0.057136 0.451003 0.001575
-0.050336 0.437403 0.001575
-0.043536 0.430603 0.001575
-0.043536 0.437403 0.001575
-0.050336 0.444203 0.001575
-0.043536 0.444203 0.001575
-0.043536 0.451003 0.008375
-0.063936 0.437403 0.042375
-0.070737 0.403403 0.049175
-0.063936 0.403403 0.055975
-0.063936 0.410203 0.049175
-0.057136 0.410203 0.055975
-0.057136 0.403403 0.062775
-0.057136 0.410203 0.062775
-0.063936 0.417003 0.049175
-0.063936 0.423803 0.049175
-0.057136 0.417003 0.055975
-0.057136 0.423803 0.055975
-0.050336 0.403403 0.062775
-0.050336 0.410203 0.062775
-0.043536 0.410203 0.069575
-0.050336 0.417003 0.062775
-0.050336 0.423803 0.062775
-0.043536 0.423803 0.069575
-0.063936 0.430603 0.049175
-0.057136 0.430603 0.055975
-0.057136 0.437403 0.049175
-0.057136 0.437403 0.055975
-0.063936 0.444203 0.049175
-0.063936 0.451003 0.049175
-0.057136 0.451003 0.055975
-0.050336 0.430603 0.055975
-0.050336 0.430603 0.062775
-0.050336 0.437403 0.062775
-0.043536 0.430603 0.062775
-0.043536 0.437403 0.069575
-0.050336 0.444203 0.055975
-0.050336 0.451003 0.055975
-0.050336 0.451003 0.062775
-0.043536 0.444203 0.062775
-0.043536 0.451003 0.062775
-0.084336 0.457803 0.001575
-0.084336 0.464603 -0.005225
-0.084336 0.464603 0.001575
-0.084336 0.457803 0.015175
-0.084336 0.471403 0.001575
-0.084336 0.478203 -0.005225
-0.084336 0.478203 0.001575
-0.084336 0.471403 0.015175
-0.084336 0.478203 0.008375
-0.084336 0.478203 0.015175
-0.084336 0.464603 0.021975
-0.084336 0.478203 0.021975
-0.077537 0.457803 0.021975
-0.077537 0.457803 0.028775
-0.077537 0.464603 0.028775
-0.070737 0.457803 0.035575
-0.070737 0.464603 0.042375
-0.077537 0.471403 0.021975
-0.077537 0.471403 0.028775
-0.077537 0.478203 0.028775
-0.077537 0.471403 0.035575
-0.070737 0.471403 0.042375
-0.070737 0.478203 0.035575
-0.070737 0.478203 0.042375
-0.084336 0.485003 -0.005225
-0.084336 0.485003 0.001575
-0.084336 0.491803 0.001575
-0.084336 0.485003 0.008375
-0.084336 0.491803 0.008375
-0.084336 0.491803 0.015175
-0.091136 0.498603 -0.005225
-0.091136 0.498603 0.001575
-0.091136 0.505403 -0.005225
-0.091136 0.505403 0.001575
-0.084336 0.498603 0.008375
-0.084336 0.505403 0.015175
-0.084336 0.485003 0.021975
-0.084336 0.491803 0.021975
-0.084336 0.498603 0.021975
-0.084336 0.505403 0.021975
-0.077537 0.485003 0.028775
-0.077537 0.491803 0.028775
-0.077537 0.485003 0.035575
-0.070737 0.485003 0.042375
-0.070737 0.491803 0.042375
-0.077537 0.498603 0.028775
-0.077537 0.498603 0.035575
-0.077537 0.505403 0.035575
-0.070737 0.498603 0.042375
-0.063936 0.457803 -0.005225
-0.057136 0.457803 0.001575
-0.057136 0.464603 -0.005225
-0.057136 0.464603 0.001575
-0.057136 0.464603 0.008375
-0.063936 0.471403 -0.005225
-0.063936 0.478203 -0.005225
-0.063936 0.478203 0.001575
-0.057136 0.471403 0.001575
-0.057136 0.471403 0.008375
-0.057136 0.478203 0.008375
-0.057136 0.478203 0.015175
-0.050336 0.457803 0.008375
-0.050336 0.464603 0.015175
-0.043536 0.457803 0.008375
-0.043536 0.464603 0.008375
-0.050336 0.471403 0.015175
-0.043536 0.471403 0.015175
-0.043536 0.478203 0.015175
-0.063936 0.457803 0.042375
-0.063936 0.485003 -0.005225
-0.063936 0.485003 0.001575
-0.063936 0.491803 -0.005225
-0.063936 0.491803 0.008375
-0.057136 0.485003 0.015175
-0.057136 0.491803 0.008375
-0.057136 0.491803 0.015175
-0.063936 0.498603 -0.005225
-0.063936 0.498603 0.001575
-0.057136 0.498603 0.008375
-0.050336 0.485003 0.015175
-0.050336 0.491803 0.015175
-0.050336 0.498603 0.015175
-0.050336 0.505403 0.015175
-0.043536 0.491803 0.021975
-0.050336 0.498603 0.021975
-0.043536 0.498603 0.021975
-0.043536 0.505403 0.021975
-0.070737 0.505403 0.049175
-0.063936 0.457803 0.049175
-0.063936 0.464603 0.049175
-0.057136 0.457803 0.055975
-0.057136 0.464603 0.055975
-0.063936 0.471403 0.049175
-0.063936 0.478203 0.049175
-0.057136 0.478203 0.055975
-0.050336 0.457803 0.062775
-0.043536 0.457803 0.062775
-0.043536 0.464603 0.062775
-0.050336 0.471403 0.055975
-0.050336 0.471403 0.062775
-0.043536 0.471403 0.062775
-0.043536 0.471403 0.069575
-0.043536 0.478203 0.062775
-0.063936 0.485003 0.049175
-0.063936 0.491803 0.049175
-0.057136 0.485003 0.055975
-0.057136 0.491803 0.055975
-0.057136 0.491803 0.062775
-0.063936 0.498603 0.049175
-0.063936 0.505403 0.055975
-0.057136 0.498603 0.055975
-0.057136 0.505403 0.062775
-0.050336 0.485003 0.062775
-0.050336 0.491803 0.062775
-0.043536 0.485003 0.069575
-0.043536 0.491803 0.069575
-0.050336 0.498603 0.062775
-0.050336 0.505403 0.062775
-0.043536 0.498603 0.069575
-0.043536 0.505403 0.069575
-0.036736 0.301403 -0.114025
-0.036736 0.308203 -0.114025
-0.036736 0.315003 -0.107225
-0.029936 0.308203 -0.114025
-0.029936 0.315003 -0.107225
-0.023137 0.315003 -0.114025
-0.016337 0.308203 -0.114025
-0.029936 0.321803 -0.107225
-0.036736 0.321803 -0.100425
-0.036736 0.328603 -0.100425
-0.029936 0.328603 -0.100425
-0.036736 0.335403 -0.093625
-0.036736 0.342203 -0.093625
-0.029936 0.335403 -0.100425
-0.029936 0.342203 -0.093625
-0.023137 0.321803 -0.107225
-0.016337 0.321803 -0.107225
-0.016337 0.328603 -0.107225
-0.016337 0.335403 -0.100425
-0.016337 0.342203 -0.100425
-0.009536 0.308203 -0.114025
-0.009536 0.315003 -0.114025
-0.002736 0.308203 -0.114025
0.004064 0.308203 -0.114025
0.004064 0.315003 -0.114025
0.004064 0.315003 -0.107225
0.010864 0.308203 -0.114025
0.010864 0.315003 -0.114025
-0.009536 0.328603 -0.107225
-0.002736 0.321803 -0.107225
-0.002736 0.328603 -0.107225
-0.009536 0.328603 -0.100425
-0.009536 0.335403 -0.100425
-0.002736 0.335403 -0.100425
-0.002736 0.342203 -0.100425
0.004064 0.321803 -0.107225
0.004064 0.328603 -0.107225
0.010864 0.321803 -0.107225
0.004064 0.328603 -0.100425
0.004064 0.335403 -0.100425
0.010864 0.335403 -0.100425
0.010864 0.342203 -0.100425
-0.029936 0.349003 -0.093625
-0.029936 0.355803 -0.093625
-0.023137 0.349003 -0.093625
-0.016337 0.349003 -0.093625
-0.016337 0.355803 -0.093625
-0.023137 0.362603 -0.093625
-0.023137 0.369403 -0.093625
-0.016337 0.362603 -0.093625
-0.016337 0.369403 -0.093625
-0.036736 0.349003 -0.086825
-0.036736 0.355803 -0.086825
-0.036736 0.369403 -0.086825
-0.029936 0.362603 -0.086825
-0.016337 0.376203 -0.093625
-0.036736 0.383003 -0.080025
-0.029936 0.376203 -0.086825
-0.029936 0.383003 -0.086825
-0.036736 0.389803 -0.080025
-0.036736 0.396603 -0.080025
-0.029936 0.396603 -0.086825
-0.023137 0.376203 -0.086825
-0.023137 0.383003 -0.086825
-0.016337 0.383003 -0.086825
-0.023137 0.389803 -0.086825
-0.023137 0.396603 -0.086825
-0.016337 0.389803 -0.086825
-0.016337 0.396603 -0.086825
-0.009536 0.349003 -0.100425
-0.009536 0.355803 -0.093625
-0.002736 0.349003 -0.093625
-0.002736 0.355803 -0.093625
-0.009536 0.362603 -0.093625
-0.009536 0.369403 -0.093625
-0.002736 0.369403 -0.093625
0.004064 0.349003 -0.100425
0.004064 0.355803 -0.093625
0.010864 0.349003 -0.100425
0.004064 0.362603 -0.093625
0.004064 0.369403 -0.093625
0.010864 0.362603 -0.093625
0.010864 0.369403 -0.093625
-0.009536 0.376203 -0.093625
-0.009536 0.383003 -0.093625
-0.002736 0.383003 -0.093625
0.004064 0.376203 -0.093625
0.004064 0.383003 -0.093625
-0.009536 0.389803 -0.086825
-0.002736 0.389803 -0.086825
0.004064 0.389803 -0.086825
0.004064 0.396603 -0.086825
0.010864 0.389803 -0.086825
-0.036736 0.362603 -0.039225
-0.036736 0.369403 -0.039225
-0.029936 0.369403 -0.039225
-0.036736 0.362603 -0.025625
-0.029936 0.362603 -0.032425
-0.029936 0.369403 -0.025625
-0.036736 0.362603 -0.018825
-0.036736 0.362603 -0.012025
-0.029936 0.369403 -0.012025
-0.036736 0.376203 -0.046025
-0.036736 0.383003 -0.046025
-0.029936 0.376203 -0.046025
-0.029936 0.383003 -0.046025
-0.036736 0.389803 -0.046025
-0.036736 0.396603 -0.046025
-0.029936 0.396603 -0.046025
-0.023137 0.383003 -0.039225
-0.023137 0.396603 -0.046025
-0.016337 0.389803 -0.046025
-0.016337 0.389803 -0.039225
-0.029936 0.376203 -0.012025
-0.029936 0.389803 -0.012025
-0.023137 0.376203 -0.032425
-0.023137 0.376203 -0.025625
-0.023137 0.383003 -0.032425
-0.023137 0.376203 -0.018825
-0.023137 0.383003 -0.018825
-0.016337 0.389803 -0.032425
-0.016337 0.396603 -0.032425
-0.023137 0.389803 -0.012025
-0.023137 0.396603 -0.012025
-0.016337 0.389803 -0.018825
-0.016337 0.396603 -0.018825
-0.009536 0.396603 -0.039225
-0.009536 0.396603 -0.025625
0.017664 0.301403 -0.114025
0.017664 0.308203 -0.114025
0.024464 0.315003 -0.107225
0.031263 0.301403 -0.114025
0.038064 0.301403 -0.114025
0.031263 0.308203 -0.107225
0.031263 0.315003 -0.107225
0.038064 0.308203 -0.107225
0.038064 0.315003 -0.100425
0.017664 0.321803 -0.107225
0.017664 0.328603 -0.100425
0.024464 0.321803 -0.100425
0.024464 0.328603 -0.100425
0.017664 0.335403 -0.100425
0.017664 0.342203 -0.093625
0.024464 0.335403 -0.100425
0.024464 0.335403 -0.093625
0.031263 0.321803 -0.100425
0.031263 0.328603 -0.100425
0.031263 0.328603 -0.093625
0.038064 0.328603 -0.100425
0.031263 0.335403 -0.093625
0.031263 0.342203 -0.093625
0.038064 0.335403 -0.093625
0.038064 0.342203 -0.093625
0.044864 0.294603 -0.114025
0.044864 0.301403 -0.107225
0.044864 0.308203 -0.100425
0.044864 0.315003 -0.100425
0.051664 0.308203 -0.100425
0.051664 0.315003 -0.093625
0.058464 0.294603 -0.107225
0.058464 0.301403 -0.100425
0.065264 0.294603 -0.100425
0.065264 0.301403 -0.100425
0.058464 0.308203 -0.100425
0.058464 0.308203 -0.093625
0.065264 0.308203 -0.093625
0.058464 0.315003 -0.086825
0.065264 0.315003 -0.086825
0.044864 0.321803 -0.100425
0.044864 0.328603 -0.093625
0.051664 0.321803 -0.093625
0.051664 0.328603 -0.093625
0.044864 0.335403 -0.093625
0.058464 0.321803 -0.093625
0.044864 0.342203 -0.086825
0.051664 0.335403 -0.086825
0.051664 0.342203 -0.086825
0.058464 0.321803 -0.086825
0.058464 0.328603 -0.086825
0.065264 0.321803 -0.080025
0.065264 0.328603 -0.080025
0.058464 0.335403 -0.080025
0.058464 0.342203 -0.080025
0.065264 0.335403 -0.080025
0.065264 0.342203 -0.073225
0.017664 0.349003 -0.093625
0.017664 0.355803 -0.093625
0.024464 0.349003 -0.093625
0.024464 0.355803 -0.093625
0.017664 0.369403 -0.093625
0.024464 0.362603 -0.093625
0.024464 0.369403 -0.093625
0.031263 0.349003 -0.093625
0.031263 0.355803 -0.093625
0.038064 0.355803 -0.093625
0.031263 0.369403 -0.086825
0.038064 0.362603 -0.086825
0.038064 0.369403 -0.086825
0.017664 0.376203 -0.093625
0.024464 0.376203 -0.086825
0.024464 0.383003 -0.086825
0.017664 0.389803 -0.086825
0.017664 0.396603 -0.086825
0.024464 0.396603 -0.086825
0.031263 0.376203 -0.086825
0.031263 0.383003 -0.086825
0.038064 0.376203 -0.086825
0.031263 0.389803 -0.086825
0.038064 0.389803 -0.086825
0.038064 0.396603 -0.086825
0.044864 0.349003 -0.086825
0.044864 0.355803 -0.086825
0.051664 0.349003 -0.086825
0.051664 0.355803 -0.086825
0.044864 0.369403 -0.080025
0.051664 0.362603 -0.080025
0.051664 0.369403 -0.080025
0.058464 0.349003 -0.080025
0.058464 0.355803 -0.080025
0.065264 0.349003 -0.073225
0.065264 0.355803 -0.073225
0.058464 0.362603 -0.080025
0.058464 0.369403 -0.073225
0.065264 0.362603 -0.073225
0.044864 0.376203 -0.080025
0.051664 0.376203 -0.080025
0.051664 0.383003 -0.080025
0.044864 0.389803 -0.080025
0.044864 0.396603 -0.080025
0.051664 0.389803 -0.080025
0.051664 0.396603 -0.073225
0.058464 0.376203 -0.080025
0.058464 0.383003 -0.073225
0.065264 0.376203 -0.073225
0.065264 0.383003 -0.066425
0.058464 0.389803 -0.073225
0.058464 0.396603 -0.073225
0.065264 0.389803 -0.066425
-0.036736 0.301403 0.096775
-0.029936 0.301403 0.096775
-0.036736 0.315003 0.083175
-0.036736 0.308203 0.089975
-0.029936 0.308203 0.089975
-0.029936 0.315003 0.089975
-0.023137 0.301403 0.096775
-0.016337 0.301403 0.096775
-0.023137 0.308203 0.096775
-0.023137 0.315003 0.089975
-0.016337 0.315003 0.089975
-0.036736 0.328603 0.083175
-0.029936 0.321803 0.083175
-0.036736 0.335403 0.076375
-0.029936 0.335403 0.083175
-0.029936 0.342203 0.076375
-0.023137 0.328603 0.083175
-0.016337 0.321803 0.089975
-0.016337 0.328603 0.089975
-0.023137 0.335403 0.083175
-0.023137 0.342203 0.083175
