ply
format ascii 1.0
element vertex 1706
property float x
property float y
property float z
end_header
-0.067186 0.118353 0.329725
-0.144886 0.184953 0.285325
-0.144886 0.196053 0.285325
-0.144886 0.207153 0.285325
-0.133786 0.207153 0.285325
-0.122686 0.207153 0.285325
-0.144886 0.129453 0.296425
-0.144886 0.140553 0.296425
-0.133786 0.129453 0.307525
-0.133786 0.140553 0.296425
-0.133786 0.140553 0.307525
-0.144886 0.151653 0.296425
-0.144886 0.162753 0.296425
-0.133786 0.151653 0.307525
-0.133786 0.162753 0.296425
-0.122686 0.129453 0.307525
-0.122686 0.140553 0.307525
-0.111586 0.129453 0.307525
-0.111586 0.140553 0.307525
-0.111586 0.129453 0.318625
-0.111586 0.140553 0.318625
-0.122686 0.151653 0.307525
-0.122686 0.162753 0.307525
-0.111586 0.151653 0.307525
-0.111586 0.162753 0.307525
-0.144886 0.173853 0.296425
-0.144886 0.184953 0.296425
-0.133786 0.173853 0.296425
-0.133786 0.184953 0.296425
-0.133786 0.196053 0.296425
-0.133786 0.207153 0.296425
-0.122686 0.173853 0.307525
-0.122686 0.184953 0.296425
-0.111586 0.173853 0.307525
-0.111586 0.184953 0.307525
-0.122686 0.196053 0.296425
-0.122686 0.207153 0.296425
-0.111586 0.196053 0.296425
-0.111586 0.207153 0.296425
-0.100486 0.129453 0.318625
-0.100486 0.140553 0.318625
-0.089387 0.129453 0.318625
-0.089387 0.140553 0.318625
-0.100486 0.151653 0.318625
-0.100486 0.162753 0.318625
-0.089387 0.151653 0.318625
-0.089387 0.162753 0.318625
-0.078287 0.129453 0.318625
-0.078287 0.129453 0.329725
-0.078287 0.140553 0.318625
-0.067186 0.129453 0.329725
-0.067186 0.140553 0.329725
-0.078287 0.151653 0.318625
-0.078287 0.162753 0.318625
-0.067186 0.151653 0.329725
-0.067186 0.162753 0.318625
-0.100486 0.173853 0.307525
-0.100486 0.184953 0.307525
-0.089387 0.184953 0.307525
-0.089387 0.173853 0.318625
-0.100486 0.196053 0.307525
-0.100486 0.207153 0.296425
-0.089387 0.196053 0.307525
-0.089387 0.207153 0.307525
-0.078287 0.173853 0.318625
-0.078287 0.184953 0.318625
-0.067186 0.173853 0.318625
-0.067186 0.184953 0.318625
-0.078287 0.196053 0.307525
-0.078287 0.207153 0.307525
-0.067186 0.196053 0.307525
-0.067186 0.207153 0.307525
-0.067186 0.196053 0.318625
-0.056086 0.040653 0.329725
-0.056086 0.051753 0.329725
-0.044986 0.040653 0.329725
-0.044986 0.051753 0.329725
-0.056086 0.062853 0.329725
-0.056086 0.073953 0.329725
-0.044986 0.062853 0.329725
-0.044986 0.073953 0.329725
-0.033886 0.040653 0.329725
-0.033886 0.051753 0.329725
-0.022787 0.040653 0.329725
-0.022787 0.051753 0.329725
-0.033886 0.062853 0.329725
-0.033886 0.073953 0.329725
-0.022787 0.062853 0.329725
-0.022787 0.073953 0.329725
-0.056086 0.085053 0.329725
-0.056086 0.096153 0.329725
-0.044986 0.085053 0.329725
-0.044986 0.096153 0.329725
-0.056086 0.107253 0.329725
-0.056086 0.118353 0.329725
-0.044986 0.118353 0.329725
-0.033886 0.085053 0.329725
-0.033886 0.096153 0.329725
-0.022787 0.085053 0.329725
-0.022787 0.096153 0.329725
-0.033886 0.107253 0.329725
-0.033886 0.118353 0.329725
-0.022787 0.107253 0.329725
-0.022787 0.118353 0.329725
-0.011686 0.040653 0.329725
-0.011686 0.051753 0.329725
-0.000586 0.040653 0.329725
-0.000586 0.051753 0.329725
-0.011686 0.062853 0.329725
-0.011686 0.073953 0.329725
-0.000586 0.062853 0.329725
-0.000586 0.073953 0.329725
0.010514 0.040653 0.329725
0.010514 0.051753 0.329725
0.021614 0.040653 0.329725
0.010514 0.062853 0.329725
0.010514 0.073953 0.329725
0.021614 0.062853 0.329725
0.021614 0.073953 0.329725
-0.011686 0.085053 0.329725
-0.011686 0.096153 0.329725
-0.000586 0.085053 0.329725
-0.000586 0.096153 0.329725
-0.011686 0.107253 0.329725
-0.011686 0.118353 0.329725
-0.000586 0.107253 0.329725
-0.000586 0.118353 0.329725
0.010514 0.085053 0.329725
0.010514 0.096153 0.329725
0.021614 0.085053 0.329725
0.021614 0.096153 0.329725
0.010514 0.107253 0.329725
0.010514 0.118353 0.329725
0.021614 0.107253 0.329725
0.021614 0.118353 0.329725
-0.056086 0.129453 0.329725
-0.056086 0.140553 0.329725
-0.044986 0.129453 0.329725
-0.044986 0.140553 0.329725
-0.056086 0.151653 0.329725
-0.056086 0.162753 0.329725
-0.044986 0.151653 0.329725
-0.044986 0.162753 0.329725
-0.033886 0.129453 0.329725
-0.033886 0.140553 0.329725
-0.022787 0.129453 0.329725
-0.022787 0.140553 0.329725
-0.033886 0.151653 0.329725
-0.033886 0.162753 0.329725
-0.022787 0.151653 0.329725
-0.022787 0.162753 0.329725
-0.056086 0.173853 0.318625
-0.056086 0.184953 0.318625
-0.044986 0.173853 0.329725
-0.044986 0.184953 0.318625
-0.056086 0.207153 0.307525
-0.044986 0.207153 0.307525
-0.056086 0.196053 0.318625
-0.044986 0.196053 0.318625
-0.044986 0.207153 0.318625
-0.033886 0.173853 0.329725
-0.033886 0.184953 0.318625
-0.022787 0.173853 0.329725
-0.022787 0.184953 0.329725
-0.022787 0.207153 0.307525
-0.033886 0.196053 0.318625
-0.033886 0.207153 0.318625
-0.022787 0.196053 0.318625
-0.022787 0.207153 0.318625
-0.011686 0.129453 0.329725
-0.011686 0.140553 0.329725
-0.000586 0.129453 0.329725
-0.000586 0.140553 0.329725
-0.011686 0.151653 0.329725
-0.011686 0.162753 0.329725
-0.000586 0.151653 0.329725
-0.000586 0.162753 0.329725
0.010514 0.129453 0.329725
0.010514 0.140553 0.329725
0.021614 0.129453 0.329725
0.021614 0.140553 0.329725
0.010514 0.151653 0.329725
0.010514 0.162753 0.329725
0.021614 0.151653 0.329725
0.021614 0.162753 0.329725
-0.011686 0.173853 0.329725
-0.011686 0.184953 0.318625
-0.011686 0.184953 0.329725
-0.000586 0.173853 0.329725
-0.000586 0.184953 0.329725
-0.011686 0.196053 0.318625
-0.011686 0.207153 0.318625
-0.000586 0.196053 0.318625
-0.000586 0.207153 0.318625
0.010514 0.173853 0.329725
0.010514 0.184953 0.329725
0.021614 0.173853 0.329725
0.021614 0.184953 0.318625
0.021614 0.184953 0.329725
0.010514 0.207153 0.307525
0.021614 0.207153 0.307525
0.010514 0.196053 0.318625
0.010514 0.207153 0.318625
0.021614 0.196053 0.318625
0.021614 0.207153 0.318625
0.032713 -0.136947 0.329725
0.032713 -0.125847 0.329725
0.043814 -0.136947 0.329725
0.043814 -0.125847 0.329725
0.032713 -0.114747 0.329725
0.032713 -0.103647 0.329725
0.043814 -0.114747 0.329725
0.043814 -0.103647 0.329725
0.054914 -0.136947 0.329725
0.054914 -0.125847 0.329725
0.066014 -0.136947 0.329725
0.066014 -0.125847 0.329725
0.054914 -0.114747 0.329725
0.054914 -0.103647 0.329725
0.066014 -0.114747 0.329725
0.066014 -0.103647 0.329725
0.032713 -0.092547 0.329725
0.032713 -0.081447 0.329725
0.043814 -0.092547 0.329725
0.043814 -0.081447 0.329725
0.032713 -0.070347 0.329725
0.032713 -0.059247 0.329725
0.043814 -0.070347 0.329725
0.043814 -0.059247 0.329725
0.054914 -0.092547 0.329725
0.054914 -0.081447 0.329725
0.066014 -0.092547 0.329725
0.066014 -0.081447 0.329725
0.054914 -0.070347 0.329725
0.054914 -0.059247 0.329725
0.066014 -0.070347 0.329725
0.066014 -0.059247 0.329725
0.077114 -0.136947 0.329725
0.077114 -0.125847 0.329725
0.088213 -0.136947 0.318625
0.088213 -0.125847 0.318625
0.088213 -0.125847 0.329725
0.077114 -0.114747 0.329725
0.077114 -0.103647 0.318625
0.077114 -0.103647 0.329725
0.088213 -0.114747 0.318625
0.088213 -0.103647 0.318625
0.099314 -0.136947 0.318625
0.099314 -0.125847 0.318625
0.110414 -0.136947 0.318625
0.110414 -0.125847 0.318625
0.099314 -0.114747 0.318625
0.099314 -0.103647 0.318625
0.110414 -0.114747 0.318625
0.110414 -0.103647 0.318625
0.077114 -0.092547 0.318625
0.077114 -0.092547 0.329725
0.077114 -0.081447 0.329725
0.088213 -0.092547 0.318625
0.088213 -0.081447 0.318625
0.077114 -0.070347 0.329725
0.077114 -0.059247 0.329725
0.088213 -0.070347 0.318625
0.088213 -0.059247 0.318625
0.099314 -0.092547 0.318625
0.099314 -0.081447 0.318625
0.110414 -0.092547 0.318625
0.110414 -0.081447 0.318625
0.099314 -0.070347 0.318625
0.099314 -0.059247 0.318625
0.110414 -0.070347 0.318625
0.110414 -0.059247 0.318625
0.032713 -0.048147 0.329725
0.032713 -0.037047 0.329725
0.043814 -0.048147 0.329725
0.043814 -0.037047 0.329725
0.032713 -0.025947 0.329725
0.032713 -0.014847 0.329725
0.043814 -0.025947 0.329725
0.043814 -0.014847 0.329725
0.054914 -0.048147 0.329725
0.054914 -0.037047 0.329725
0.066014 -0.048147 0.329725
0.066014 -0.037047 0.329725
0.054914 -0.025947 0.329725
0.054914 -0.014847 0.329725
0.066014 -0.025947 0.329725
0.066014 -0.014847 0.329725
0.032713 -0.003747 0.329725
0.032713 0.007353 0.329725
0.043814 -0.003747 0.329725
0.043814 0.007353 0.329725
0.032713 0.018453 0.329725
0.032713 0.029553 0.329725
0.043814 0.018453 0.329725
0.043814 0.029553 0.329725
0.054914 -0.003747 0.329725
0.054914 0.007353 0.329725
0.066014 -0.003747 0.329725
0.066014 0.007353 0.329725
0.054914 0.018453 0.329725
0.054914 0.029553 0.329725
0.066014 0.018453 0.329725
0.066014 0.029553 0.329725
0.077114 -0.048147 0.329725
0.077114 -0.037047 0.318625
0.077114 -0.037047 0.329725
0.088213 -0.048147 0.318625
0.088213 -0.048147 0.329725
0.088213 -0.037047 0.318625
0.077114 -0.025947 0.329725
0.077114 -0.014847 0.318625
0.077114 -0.014847 0.329725
0.088213 -0.025947 0.318625
0.088213 -0.014847 0.318625
0.099314 -0.048147 0.318625
0.099314 -0.037047 0.318625
0.110414 -0.048147 0.318625
0.110414 -0.037047 0.318625
0.099314 -0.025947 0.318625
0.099314 -0.014847 0.318625
0.110414 -0.025947 0.318625
0.110414 -0.014847 0.318625
0.077114 -0.003747 0.329725
0.077114 0.007353 0.318625
0.077114 0.007353 0.329725
0.088213 -0.003747 0.318625
0.088213 0.007353 0.318625
0.077114 0.018453 0.318625
0.077114 0.018453 0.329725
0.077114 0.029553 0.318625
0.077114 0.029553 0.329725
0.088213 0.018453 0.318625
0.088213 0.029553 0.318625
0.099314 -0.003747 0.318625
0.099314 0.007353 0.318625
0.110414 -0.003747 0.318625
0.110414 0.007353 0.318625
0.099314 0.018453 0.318625
0.099314 0.029553 0.318625
0.110414 0.018453 0.318625
0.110414 0.029553 0.318625
0.165913 -0.136947 0.285325
0.165913 -0.125847 0.285325
0.177013 -0.136947 0.285325
0.177013 -0.125847 0.285325
0.165913 -0.114747 0.285325
0.177013 -0.114747 0.285325
0.177013 -0.103647 0.285325
0.199214 -0.136947 0.263125
0.199214 -0.125847 0.263125
0.188114 -0.136947 0.274225
0.188114 -0.125847 0.274225
0.199214 -0.136947 0.274225
0.199214 -0.125847 0.274225
0.199214 -0.114747 0.263125
0.199214 -0.103647 0.263125
0.188114 -0.114747 0.274225
0.188114 -0.114747 0.285325
0.188114 -0.103647 0.274225
0.188114 -0.103647 0.285325
0.199214 -0.114747 0.274225
0.199214 -0.103647 0.274225
0.165913 -0.081447 0.285325
0.177013 -0.092547 0.285325
0.177013 -0.081447 0.285325
0.165913 -0.070347 0.285325
0.165913 -0.059247 0.285325
0.177013 -0.070347 0.285325
0.177013 -0.059247 0.285325
0.199214 -0.092547 0.263125
0.199214 -0.081447 0.263125
0.188114 -0.092547 0.274225
0.188114 -0.081447 0.274225
0.199214 -0.092547 0.274225
0.199214 -0.081447 0.274225
0.199214 -0.070347 0.263125
0.199214 -0.059247 0.263125
0.188114 -0.070347 0.274225
0.188114 -0.070347 0.285325
0.188114 -0.059247 0.274225
0.199214 -0.070347 0.274225
0.199214 -0.059247 0.274225
0.121514 -0.136947 0.307525
0.121514 -0.125847 0.307525
0.132614 -0.136947 0.307525
0.132614 -0.125847 0.307525
0.121514 -0.136947 0.318625
0.121514 -0.125847 0.318625
0.121514 -0.114747 0.307525
0.121514 -0.103647 0.307525
0.132614 -0.114747 0.307525
0.132614 -0.103647 0.307525
0.121514 -0.114747 0.318625
0.143714 -0.136947 0.296425
0.143714 -0.136947 0.307525
0.143714 -0.125847 0.296425
0.143714 -0.125847 0.307525
0.154814 -0.136947 0.296425
0.154814 -0.125847 0.296425
0.143714 -0.114747 0.296425
0.143714 -0.114747 0.307525
0.143714 -0.103647 0.296425
0.143714 -0.103647 0.307525
0.154814 -0.114747 0.296425
0.154814 -0.103647 0.296425
0.121514 -0.092547 0.307525
0.121514 -0.081447 0.307525
0.132614 -0.092547 0.307525
0.132614 -0.081447 0.307525
0.121514 -0.070347 0.307525
0.121514 -0.059247 0.307525
0.132614 -0.070347 0.307525
0.132614 -0.059247 0.307525
0.143714 -0.092547 0.307525
0.143714 -0.081447 0.296425
0.143714 -0.081447 0.307525
0.154814 -0.092547 0.296425
0.154814 -0.081447 0.296425
0.143714 -0.070347 0.296425
0.143714 -0.070347 0.307525
0.143714 -0.059247 0.307525
0.154814 -0.070347 0.296425
0.154814 -0.059247 0.296425
0.165913 -0.125847 0.296425
0.165913 -0.114747 0.296425
0.165913 -0.103647 0.296425
0.165913 -0.092547 0.296425
0.165913 -0.081447 0.296425
0.165913 -0.070347 0.296425
0.165913 -0.059247 0.296425
0.165913 -0.048147 0.285325
0.165913 -0.037047 0.285325
0.177013 -0.048147 0.285325
0.177013 -0.037047 0.285325
0.165913 -0.025947 0.285325
0.165913 -0.014847 0.285325
0.177013 -0.025947 0.285325
0.177013 -0.014847 0.285325
0.199214 -0.048147 0.263125
0.199214 -0.037047 0.263125
0.188114 -0.048147 0.274225
0.188114 -0.037047 0.274225
0.188114 -0.037047 0.285325
0.199214 -0.048147 0.274225
0.199214 -0.037047 0.274225
0.199214 -0.025947 0.263125
0.199214 -0.014847 0.263125
0.188114 -0.025947 0.274225
0.188114 -0.014847 0.274225
0.199214 -0.025947 0.274225
0.199214 -0.014847 0.274225
0.165913 -0.003747 0.285325
0.165913 0.007353 0.285325
0.177013 -0.003747 0.285325
0.177013 0.007353 0.285325
0.165913 0.018453 0.285325
0.165913 0.029553 0.285325
0.177013 0.018453 0.285325
0.177013 0.029553 0.285325
0.199214 0.007353 0.263125
0.188114 -0.003747 0.274225
0.188114 0.007353 0.274225
0.199214 -0.003747 0.274225
0.199214 0.007353 0.274225
0.199214 0.018453 0.263125
0.199214 0.029553 0.263125
0.188114 0.018453 0.274225
0.188114 0.029553 0.274225
0.188114 0.029553 0.285325
0.199214 0.018453 0.274225
0.199214 0.029553 0.274225
0.121514 -0.048147 0.307525
0.121514 -0.037047 0.307525
0.132614 -0.048147 0.307525
0.132614 -0.037047 0.307525
0.121514 -0.014847 0.307525
0.132614 -0.025947 0.307525
0.132614 -0.014847 0.307525
0.121514 -0.025947 0.318625
0.121514 -0.014847 0.318625
0.143714 -0.048147 0.307525
0.143714 -0.037047 0.296425
0.143714 -0.037047 0.307525
0.154814 -0.048147 0.296425
0.154814 -0.037047 0.296425
0.143714 -0.025947 0.307525
0.143714 -0.014847 0.296425
0.143714 -0.014847 0.307525
0.154814 -0.025947 0.296425
0.154814 -0.014847 0.296425
0.121514 -0.003747 0.307525
0.121514 0.007353 0.307525
0.132614 -0.003747 0.307525
0.132614 0.007353 0.307525
0.121514 0.018453 0.307525
0.121514 0.029553 0.307525
0.132614 0.018453 0.307525
0.132614 0.029553 0.307525
0.121514 0.018453 0.318625
0.143714 -0.003747 0.296425
0.143714 -0.003747 0.307525
0.143714 0.007353 0.296425
0.143714 0.007353 0.307525
0.154814 -0.003747 0.296425
0.154814 0.007353 0.296425
0.143714 0.018453 0.296425
0.143714 0.018453 0.307525
0.143714 0.029553 0.296425
0.143714 0.029553 0.307525
0.154814 0.018453 0.296425
0.154814 0.029553 0.296425
0.165913 -0.048147 0.296425
0.165913 -0.014847 0.296425
0.165913 -0.003747 0.296425
0.165913 0.029553 0.296425
0.032713 0.040653 0.329725
0.032713 0.051753 0.329725
0.043814 0.040653 0.329725
0.043814 0.051753 0.329725
0.032713 0.062853 0.329725
0.032713 0.073953 0.329725
0.043814 0.062853 0.329725
0.043814 0.073953 0.329725
0.054914 0.040653 0.329725
0.054914 0.051753 0.329725
0.066014 0.040653 0.329725
0.066014 0.051753 0.329725
0.054914 0.062853 0.329725
0.054914 0.073953 0.329725
0.066014 0.062853 0.329725
0.066014 0.073953 0.329725
0.032713 0.085053 0.329725
0.032713 0.096153 0.329725
0.043814 0.085053 0.329725
0.043814 0.096153 0.329725
0.032713 0.107253 0.329725
0.032713 0.118353 0.329725
0.043814 0.107253 0.329725
0.043814 0.118353 0.329725
0.054914 0.085053 0.329725
0.054914 0.096153 0.329725
0.066014 0.085053 0.329725
0.066014 0.096153 0.329725
0.054914 0.107253 0.329725
0.054914 0.118353 0.329725
0.066014 0.107253 0.329725
0.066014 0.118353 0.329725
0.077114 0.040653 0.329725
0.077114 0.051753 0.329725
0.088213 0.040653 0.318625
0.088213 0.051753 0.318625
0.077114 0.062853 0.329725
0.077114 0.073953 0.329725
0.088213 0.062853 0.318625
0.088213 0.073953 0.318625
0.099314 0.040653 0.318625
0.099314 0.051753 0.318625
0.110414 0.040653 0.318625
0.110414 0.051753 0.318625
0.099314 0.062853 0.318625
0.099314 0.073953 0.318625
0.110414 0.062853 0.318625
0.110414 0.073953 0.318625
0.077114 0.085053 0.318625
0.077114 0.085053 0.329725
0.077114 0.096153 0.329725
0.088213 0.085053 0.318625
0.088213 0.096153 0.318625
0.077114 0.107253 0.318625
0.077114 0.107253 0.329725
0.077114 0.118353 0.318625
0.077114 0.118353 0.329725
0.088213 0.107253 0.318625
0.088213 0.118353 0.318625
0.099314 0.085053 0.318625
0.099314 0.096153 0.318625
0.110414 0.085053 0.318625
0.110414 0.096153 0.318625
0.099314 0.107253 0.318625
0.099314 0.118353 0.318625
0.110414 0.107253 0.318625
0.110414 0.118353 0.318625
0.110414 0.207153 0.285325
0.032713 0.129453 0.329725
0.032713 0.140553 0.329725
0.043814 0.129453 0.329725
0.043814 0.140553 0.329725
0.032713 0.151653 0.329725
0.032713 0.162753 0.329725
0.043814 0.151653 0.329725
0.043814 0.162753 0.329725
0.054914 0.129453 0.329725
0.054914 0.140553 0.329725
0.066014 0.129453 0.329725
0.066014 0.140553 0.318625
0.066014 0.140553 0.329725
0.054914 0.151653 0.329725
0.054914 0.162753 0.329725
0.066014 0.151653 0.318625
0.066014 0.151653 0.329725
0.066014 0.162753 0.318625
0.032713 0.173853 0.329725
0.032713 0.184953 0.318625
0.043814 0.173853 0.318625
0.043814 0.173853 0.329725
0.043814 0.184953 0.318625
0.032713 0.207153 0.307525
0.043814 0.196053 0.307525
0.043814 0.207153 0.307525
0.032713 0.196053 0.318625
0.032713 0.207153 0.318625
0.043814 0.196053 0.318625
0.054914 0.173853 0.318625
0.054914 0.184953 0.318625
0.066014 0.173853 0.318625
0.066014 0.184953 0.318625
0.054914 0.207153 0.307525
0.066014 0.196053 0.307525
0.066014 0.207153 0.307525
0.054914 0.196053 0.318625
0.077114 0.129453 0.318625
0.077114 0.140553 0.318625
0.088213 0.129453 0.318625
0.088213 0.140553 0.318625
0.077114 0.151653 0.318625
0.077114 0.162753 0.318625
0.088213 0.151653 0.318625
0.088213 0.162753 0.318625
0.110414 0.129453 0.307525
0.110414 0.140553 0.307525
0.099314 0.129453 0.318625
0.099314 0.140553 0.318625
0.110414 0.129453 0.318625
0.110414 0.140553 0.318625
0.099314 0.162753 0.307525
0.110414 0.151653 0.307525
0.110414 0.162753 0.307525
0.099314 0.151653 0.318625
0.099314 0.162753 0.318625
0.077114 0.184953 0.307525
0.088213 0.173853 0.307525
0.088213 0.184953 0.307525
0.077114 0.173853 0.318625
0.077114 0.184953 0.318625
0.088213 0.173853 0.318625
0.077114 0.196053 0.307525
0.077114 0.207153 0.296425
0.077114 0.207153 0.307525
0.088213 0.196053 0.307525
0.088213 0.207153 0.296425
0.099314 0.173853 0.307525
0.099314 0.184953 0.307525
0.110414 0.173853 0.307525
0.110414 0.184953 0.296425
0.099314 0.196053 0.296425
0.099314 0.196053 0.307525
0.099314 0.207153 0.296425
0.110414 0.196053 0.296425
0.110414 0.207153 0.296425
0.165913 0.040653 0.285325
0.165913 0.051753 0.285325
0.177013 0.040653 0.285325
0.177013 0.051753 0.285325
0.165913 0.062853 0.285325
0.177013 0.062853 0.285325
0.177013 0.073953 0.285325
0.199214 0.040653 0.263125
0.188114 0.040653 0.274225
0.188114 0.040653 0.285325
0.188114 0.051753 0.274225
0.188114 0.051753 0.285325
0.199214 0.040653 0.274225
0.199214 0.051753 0.274225
0.188114 0.062853 0.274225
0.188114 0.062853 0.285325
0.188114 0.073953 0.274225
0.188114 0.073953 0.285325
0.199214 0.062853 0.274225
0.199214 0.073953 0.274225
0.165913 0.085053 0.285325
0.165913 0.096153 0.285325
0.177013 0.085053 0.285325
0.177013 0.096153 0.285325
0.165913 0.107253 0.285325
0.165913 0.118353 0.285325
0.177013 0.107253 0.285325
0.177013 0.118353 0.285325
0.199214 0.085053 0.263125
0.199214 0.096153 0.263125
0.188114 0.085053 0.274225
0.188114 0.085053 0.285325
0.188114 0.096153 0.274225
0.188114 0.096153 0.285325
0.199214 0.085053 0.274225
0.199214 0.096153 0.274225
0.199214 0.107253 0.263125
0.199214 0.118353 0.263125
0.188114 0.107253 0.274225
0.188114 0.118353 0.274225
0.199214 0.107253 0.274225
0.199214 0.118353 0.274225
0.121514 0.040653 0.307525
0.121514 0.051753 0.307525
0.132614 0.040653 0.307525
0.132614 0.051753 0.307525
0.121514 0.051753 0.318625
0.121514 0.062853 0.307525
0.121514 0.073953 0.307525
0.132614 0.062853 0.307525
0.132614 0.073953 0.307525
0.121514 0.062853 0.318625
0.121514 0.073953 0.318625
0.143714 0.040653 0.296425
0.143714 0.040653 0.307525
0.143714 0.051753 0.307525
0.154814 0.040653 0.296425
0.154814 0.051753 0.296425
0.143714 0.062853 0.296425
0.143714 0.062853 0.307525
0.143714 0.073953 0.296425
0.143714 0.073953 0.307525
0.154814 0.062853 0.296425
0.154814 0.073953 0.296425
0.121514 0.085053 0.307525
0.121514 0.096153 0.307525
0.132614 0.085053 0.307525
0.132614 0.096153 0.307525
0.121514 0.096153 0.318625
0.121514 0.107253 0.307525
0.121514 0.118353 0.307525
0.132614 0.107253 0.307525
0.132614 0.118353 0.307525
0.143714 0.085053 0.296425
0.143714 0.085053 0.307525
0.143714 0.096153 0.296425
0.143714 0.096153 0.307525
0.154814 0.085053 0.296425
0.154814 0.096153 0.296425
0.143714 0.107253 0.307525
0.143714 0.118353 0.296425
0.143714 0.118353 0.307525
0.154814 0.107253 0.296425
0.154814 0.118353 0.296425
0.165913 0.040653 0.296425
0.165913 0.051753 0.296425
0.165913 0.062853 0.296425
0.165913 0.073953 0.296425
0.165913 0.085053 0.296425
0.165913 0.096153 0.296425
0.165913 0.107253 0.296425
0.165913 0.118353 0.296425
0.154814 0.151653 0.285325
0.154814 0.162753 0.285325
0.121514 0.207153 0.285325
0.132614 0.196053 0.285325
0.132614 0.207153 0.274225
0.132614 0.207153 0.285325
0.143714 0.184953 0.285325
0.154814 0.173853 0.285325
0.154814 0.184953 0.274225
0.154814 0.184953 0.285325
0.154814 0.207153 0.263125
0.143714 0.196053 0.285325
0.143714 0.207153 0.274225
0.154814 0.196053 0.274225
0.154814 0.207153 0.274225
0.165913 0.129453 0.285325
0.165913 0.140553 0.285325
0.177013 0.129453 0.285325
0.177013 0.140553 0.285325
0.165913 0.151653 0.285325
0.165913 0.162753 0.285325
0.177013 0.151653 0.274225
0.177013 0.151653 0.285325
0.177013 0.162753 0.274225
0.199214 0.129453 0.263125
0.199214 0.140553 0.263125
0.188114 0.129453 0.274225
0.188114 0.140553 0.274225
0.199214 0.129453 0.274225
0.199214 0.151653 0.263125
0.199214 0.162753 0.263125
0.188114 0.151653 0.274225
0.188114 0.162753 0.274225
0.188114 0.207153 0.240925
0.199214 0.196053 0.240925
0.199214 0.207153 0.229825
0.199214 0.207153 0.240925
0.165913 0.173853 0.285325
0.165913 0.184953 0.274225
0.177013 0.173853 0.274225
0.177013 0.184953 0.274225
0.165913 0.196053 0.263125
0.165913 0.207153 0.252025
0.165913 0.207153 0.263125
0.177013 0.196053 0.263125
0.177013 0.207153 0.252025
0.177013 0.207153 0.263125
0.165913 0.196053 0.274225
0.188114 0.173853 0.263125
0.188114 0.184953 0.263125
0.199214 0.173853 0.252025
0.199214 0.173853 0.263125
0.199214 0.184953 0.252025
0.188114 0.173853 0.274225
0.188114 0.196053 0.252025
0.188114 0.207153 0.252025
0.199214 0.196053 0.252025
0.121514 0.129453 0.307525
0.121514 0.140553 0.307525
0.132614 0.129453 0.307525
0.132614 0.140553 0.307525
0.121514 0.151653 0.307525
0.121514 0.162753 0.307525
0.132614 0.151653 0.307525
0.132614 0.162753 0.296425
0.132614 0.162753 0.307525
0.143714 0.129453 0.296425
0.143714 0.129453 0.307525
0.143714 0.140553 0.296425
0.143714 0.140553 0.307525
0.154814 0.129453 0.296425
0.154814 0.140553 0.296425
0.143714 0.151653 0.296425
0.143714 0.162753 0.296425
0.154814 0.151653 0.296425
0.121514 0.173853 0.296425
0.121514 0.184953 0.296425
0.132614 0.173853 0.296425
0.132614 0.184953 0.296425
0.121514 0.196053 0.296425
0.143714 0.173853 0.296425
0.154814 0.173853 0.296425
0.165913 0.129453 0.296425
-0.244786 0.218253 -0.214175
-0.244786 0.218253 -0.203075
-0.266986 0.218253 -0.180875
-0.278086 0.218253 -0.169775
-0.278086 0.218253 -0.158675
-0.266986 0.218253 -0.169775
-0.266986 0.218253 -0.158675
-0.266986 0.229353 -0.158675
-0.255886 0.218253 -0.191975
-0.255886 0.218253 -0.180875
-0.255886 0.229353 -0.180875
-0.244786 0.218253 -0.191975
-0.244786 0.229353 -0.191975
-0.244786 0.229353 -0.180875
-0.255886 0.229353 -0.169775
-0.255886 0.229353 -0.158675
-0.255886 0.240453 -0.158675
-0.244786 0.240453 -0.169775
-0.244786 0.240453 -0.158675
-0.200386 0.218253 -0.247475
-0.189286 0.218253 -0.258575
-0.189286 0.218253 -0.247475
-0.189286 0.229353 -0.247475
-0.178186 0.218253 -0.258575
-0.178186 0.229353 -0.258575
-0.178186 0.229353 -0.247475
-0.178186 0.240453 -0.247475
-0.167086 0.218253 -0.269675
-0.155986 0.218253 -0.269675
-0.155986 0.229353 -0.269675
-0.167086 0.218253 -0.258575
-0.167086 0.229353 -0.258575
-0.167086 0.229353 -0.247475
-0.155986 0.229353 -0.258575
-0.167086 0.240453 -0.247475
-0.155986 0.240453 -0.258575
-0.155986 0.240453 -0.247475
-0.155986 0.251553 -0.247475
-0.233686 0.218253 -0.225275
-0.222586 0.218253 -0.225275
-0.222586 0.229353 -0.225275
-0.233686 0.218253 -0.214175
-0.233686 0.229353 -0.214175
-0.233686 0.229353 -0.203075
-0.222586 0.229353 -0.214175
-0.222586 0.229353 -0.203075
-0.222586 0.240453 -0.203075
-0.211486 0.218253 -0.236375
-0.211486 0.218253 -0.225275
-0.211486 0.229353 -0.236375
-0.211486 0.229353 -0.225275
-0.200386 0.218253 -0.236375
-0.200386 0.229353 -0.236375
-0.200386 0.229353 -0.225275
-0.200386 0.240453 -0.225275
-0.211486 0.240453 -0.214175
-0.211486 0.240453 -0.203075
-0.211486 0.251553 -0.203075
-0.200386 0.240453 -0.214175
-0.200386 0.251553 -0.214175
-0.200386 0.251553 -0.203075
-0.233686 0.229353 -0.191975
-0.233686 0.240453 -0.191975
-0.233686 0.240453 -0.180875
-0.222586 0.240453 -0.191975
-0.222586 0.251553 -0.180875
-0.233686 0.240453 -0.169775
-0.233686 0.251553 -0.169775
-0.233686 0.251553 -0.158675
-0.222586 0.251553 -0.169775
-0.222586 0.251553 -0.158675
-0.211486 0.251553 -0.191975
-0.211486 0.251553 -0.180875
-0.200386 0.251553 -0.191975
-0.200386 0.251553 -0.180875
-0.211486 0.251553 -0.169775
-0.222586 0.262653 -0.158675
-0.200386 0.262653 -0.180875
-0.211486 0.262653 -0.169775
-0.211486 0.262653 -0.158675
-0.200386 0.262653 -0.169775
-0.200386 0.262653 -0.158675
-0.189286 0.229353 -0.236375
-0.189286 0.240453 -0.236375
-0.189286 0.240453 -0.225275
-0.178186 0.240453 -0.236375
-0.178186 0.240453 -0.225275
-0.178186 0.251553 -0.225275
-0.189286 0.240453 -0.214175
-0.189286 0.251553 -0.214175
-0.189286 0.251553 -0.203075
-0.178186 0.251553 -0.214175
-0.178186 0.251553 -0.203075
-0.167086 0.240453 -0.236375
-0.167086 0.251553 -0.236375
-0.167086 0.251553 -0.225275
-0.155986 0.251553 -0.236375
-0.155986 0.251553 -0.225275
-0.167086 0.251553 -0.214175
-0.167086 0.262653 -0.203075
-0.155986 0.262653 -0.214175
-0.155986 0.262653 -0.203075
-0.189286 0.262653 -0.191975
-0.189286 0.262653 -0.180875
-0.178186 0.262653 -0.191975
-0.178186 0.262653 -0.180875
-0.189286 0.262653 -0.169775
-0.189286 0.262653 -0.158675
-0.178186 0.262653 -0.169775
-0.178186 0.262653 -0.158675
-0.167086 0.262653 -0.191975
-0.167086 0.262653 -0.180875
-0.155986 0.262653 -0.191975
-0.155986 0.273753 -0.180875
-0.167086 0.262653 -0.169775
-0.167086 0.273753 -0.169775
-0.167086 0.273753 -0.158675
-0.155986 0.273753 -0.169775
-0.155986 0.273753 -0.158675
-0.289186 0.218253 -0.136475
-0.300287 0.218253 -0.114275
-0.289186 0.218253 -0.125375
-0.289186 0.218253 -0.114275
-0.289186 0.229353 -0.114275
-0.311386 0.218253 -0.080975
-0.311386 0.218253 -0.069875
-0.300287 0.218253 -0.103175
-0.300287 0.218253 -0.092075
-0.300287 0.229353 -0.092075
-0.289186 0.218253 -0.103175
-0.289186 0.229353 -0.103175
-0.289186 0.229353 -0.092075
-0.300287 0.218253 -0.080975
-0.300287 0.218253 -0.069875
-0.300287 0.229353 -0.080975
-0.300287 0.229353 -0.069875
-0.289186 0.229353 -0.080975
-0.289186 0.229353 -0.069875
-0.289186 0.240453 -0.092075
-0.289186 0.240453 -0.080975
-0.289186 0.240453 -0.069875
-0.278086 0.218253 -0.147575
-0.278086 0.218253 -0.136475
-0.278086 0.229353 -0.136475
-0.266986 0.229353 -0.147575
-0.266986 0.229353 -0.136475
-0.278086 0.229353 -0.125375
-0.278086 0.229353 -0.114275
-0.266986 0.240453 -0.147575
-0.266986 0.240453 -0.136475
-0.278086 0.240453 -0.114275
-0.266986 0.240453 -0.125375
-0.266986 0.240453 -0.114275
-0.266986 0.251553 -0.114275
-0.255886 0.240453 -0.147575
-0.255886 0.240453 -0.136475
-0.255886 0.251553 -0.136475
-0.244786 0.240453 -0.147575
-0.244786 0.251553 -0.147575
-0.244786 0.251553 -0.136475
-0.255886 0.240453 -0.125375
-0.255886 0.251553 -0.125375
-0.255886 0.251553 -0.114275
-0.244786 0.251553 -0.125375
-0.244786 0.251553 -0.114275
-0.278086 0.240453 -0.103175
-0.278086 0.240453 -0.092075
-0.266986 0.240453 -0.103175
-0.266986 0.251553 -0.103175
-0.266986 0.251553 -0.092075
-0.278086 0.240453 -0.080975
-0.278086 0.240453 -0.069875
-0.278086 0.251553 -0.069875
-0.266986 0.251553 -0.080975
-0.266986 0.251553 -0.069875
-0.255886 0.251553 -0.103175
-0.255886 0.251553 -0.092075
-0.244786 0.251553 -0.103175
-0.255886 0.251553 -0.080975
-0.255886 0.251553 -0.069875
-0.244786 0.262653 -0.114275
-0.255886 0.262653 -0.092075
-0.244786 0.262653 -0.103175
-0.244786 0.262653 -0.092075
-0.255886 0.262653 -0.080975
-0.255886 0.262653 -0.069875
-0.244786 0.262653 -0.080975
-0.244786 0.262653 -0.069875
-0.311386 0.218253 -0.058775
-0.311386 0.218253 -0.047675
-0.311386 0.229353 -0.058775
-0.311386 0.229353 -0.047675
-0.322486 0.218253 -0.036575
-0.322486 0.218253 -0.025475
-0.311386 0.218253 -0.036575
-0.311386 0.218253 -0.025475
-0.311386 0.229353 -0.036575
-0.311386 0.229353 -0.025475
-0.300287 0.229353 -0.058775
-0.300287 0.229353 -0.047675
-0.300287 0.229353 -0.036575
-0.300287 0.229353 -0.025475
-0.300287 0.240453 -0.047675
-0.289186 0.240453 -0.058775
-0.289186 0.240453 -0.047675
-0.300287 0.240453 -0.025475
-0.289186 0.240453 -0.036575
-0.289186 0.240453 -0.025475
-0.322486 0.218253 -0.014375
-0.322486 0.218253 -0.003275
-0.311386 0.218253 -0.014375
-0.311386 0.218253 -0.003275
-0.311386 0.229353 -0.014375
-0.311386 0.229353 -0.003275
-0.311386 0.218253 0.007825
-0.311386 0.218253 0.018925
-0.311386 0.229353 0.007825
-0.311386 0.229353 0.018925
-0.300287 0.229353 -0.014375
-0.300287 0.229353 -0.003275
-0.300287 0.229353 0.007825
-0.300287 0.229353 0.018925
-0.300287 0.240453 -0.014375
-0.289186 0.240453 -0.014375
-0.289186 0.240453 -0.003275
-0.289186 0.251553 -0.014375
-0.300287 0.240453 0.007825
-0.300287 0.240453 0.018925
-0.289186 0.240453 0.007825
-0.289186 0.240453 0.018925
-0.278086 0.240453 -0.058775
-0.278086 0.251553 -0.058775
-0.278086 0.251553 -0.047675
-0.266986 0.251553 -0.058775
-0.266986 0.251553 -0.047675
-0.278086 0.251553 -0.036575
-0.278086 0.251553 -0.025475
-0.266986 0.251553 -0.036575
-0.266986 0.251553 -0.025475
-0.255886 0.251553 -0.058775
-0.278086 0.251553 -0.014375
-0.278086 0.251553 -0.003275
-0.266986 0.251553 -0.014375
-0.278086 0.251553 0.007825
-0.278086 0.251553 0.018925
-0.266986 0.251553 0.007825
-0.266986 0.251553 0.018925
-0.255886 0.262653 -0.058775
-0.255886 0.262653 -0.047675
-0.244786 0.262653 -0.058775
-0.244786 0.262653 -0.047675
-0.255886 0.262653 -0.036575
-0.255886 0.262653 -0.025475
-0.244786 0.262653 -0.036575
-0.244786 0.262653 -0.025475
-0.266986 0.262653 -0.014375
-0.266986 0.262653 -0.003275
-0.266986 0.262653 0.007825
-0.266986 0.262653 0.018925
-0.255886 0.262653 -0.014375
-0.255886 0.262653 -0.003275
-0.244786 0.262653 -0.014375
-0.244786 0.262653 -0.003275
-0.255886 0.262653 0.007825
-0.255886 0.262653 0.018925
-0.244786 0.262653 0.007825
-0.244786 0.262653 0.018925
-0.233686 0.251553 -0.147575
-0.233686 0.251553 -0.136475
-0.222586 0.251553 -0.147575
-0.233686 0.251553 -0.125375
-0.233686 0.262653 -0.136475
-0.222586 0.262653 -0.147575
-0.222586 0.262653 -0.136475
-0.233686 0.262653 -0.125375
-0.233686 0.262653 -0.114275
-0.222586 0.262653 -0.125375
-0.222586 0.262653 -0.114275
-0.211486 0.262653 -0.147575
-0.211486 0.262653 -0.136475
-0.200386 0.262653 -0.147575
-0.200386 0.262653 -0.136475
-0.200386 0.273753 -0.136475
-0.211486 0.262653 -0.125375
-0.211486 0.273753 -0.125375
-0.211486 0.273753 -0.114275
-0.200386 0.273753 -0.125375
-0.200386 0.273753 -0.114275
-0.233686 0.262653 -0.103175
-0.233686 0.262653 -0.092075
-0.222586 0.262653 -0.103175
-0.222586 0.262653 -0.092075
-0.233686 0.262653 -0.080975
-0.233686 0.262653 -0.069875
-0.222586 0.262653 -0.080975
-0.222586 0.273753 -0.080975
-0.222586 0.273753 -0.069875
-0.211486 0.273753 -0.103175
-0.211486 0.273753 -0.092075
-0.200386 0.273753 -0.103175
-0.200386 0.273753 -0.092075
-0.211486 0.273753 -0.080975
-0.211486 0.273753 -0.069875
-0.200386 0.273753 -0.080975
-0.200386 0.273753 -0.069875
-0.189286 0.273753 -0.136475
-0.178186 0.273753 -0.147575
-0.178186 0.273753 -0.136475
-0.189286 0.273753 -0.125375
-0.189286 0.273753 -0.114275
-0.178186 0.273753 -0.125375
-0.178186 0.273753 -0.114275
-0.167086 0.273753 -0.147575
-0.167086 0.273753 -0.136475
-0.155986 0.273753 -0.147575
-0.155986 0.273753 -0.136475
-0.167086 0.273753 -0.125375
-0.167086 0.273753 -0.114275
-0.155986 0.273753 -0.125375
-0.167086 0.284853 -0.114275
-0.155986 0.284853 -0.125375
-0.155986 0.284853 -0.114275
-0.189286 0.273753 -0.103175
-0.189286 0.273753 -0.092075
-0.178186 0.273753 -0.103175
-0.178186 0.273753 -0.092075
-0.189286 0.273753 -0.080975
-0.189286 0.273753 -0.069875
-0.178186 0.273753 -0.080975
-0.178186 0.284853 -0.080975
-0.178186 0.284853 -0.069875
-0.167086 0.284853 -0.103175
-0.167086 0.284853 -0.092075
-0.155986 0.284853 -0.103175
-0.155986 0.284853 -0.092075
-0.167086 0.284853 -0.080975
-0.167086 0.284853 -0.069875
-0.155986 0.284853 -0.080975
-0.155986 0.284853 -0.069875
-0.233686 0.262653 -0.058775
-0.233686 0.262653 -0.047675
-0.233686 0.273753 -0.047675
-0.222586 0.273753 -0.058775
-0.222586 0.273753 -0.047675
-0.233686 0.262653 -0.036575
-0.233686 0.273753 -0.025475
-0.222586 0.273753 -0.036575
-0.211486 0.273753 -0.058775
-0.211486 0.273753 -0.047675
-0.200386 0.273753 -0.058775
-0.200386 0.273753 -0.047675
-0.211486 0.273753 -0.036575
-0.211486 0.273753 -0.025475
-0.200386 0.273753 -0.036575
-0.200386 0.273753 -0.025475
-0.233686 0.262653 -0.014375
-0.233686 0.273753 -0.014375
-0.233686 0.273753 -0.003275
-0.222586 0.273753 -0.014375
-0.222586 0.273753 -0.003275
-0.233686 0.262653 0.018925
-0.233686 0.273753 0.007825
-0.233686 0.273753 0.018925
-0.222586 0.273753 0.007825
-0.222586 0.273753 0.018925
-0.211486 0.273753 -0.014375
-0.211486 0.273753 -0.003275
-0.200386 0.273753 -0.014375
-0.200386 0.273753 -0.003275
-0.211486 0.273753 0.007825
-0.211486 0.273753 0.018925
-0.200386 0.273753 0.007825
-0.200386 0.273753 0.018925
-0.189286 0.273753 -0.058775
-0.189286 0.273753 -0.047675
-0.189286 0.284853 -0.058775
-0.189286 0.284853 -0.047675
-0.178186 0.284853 -0.058775
-0.178186 0.284853 -0.047675
-0.189286 0.284853 -0.036575
-0.189286 0.284853 -0.025475
-0.178186 0.284853 -0.036575
-0.178186 0.284853 -0.025475
-0.167086 0.284853 -0.058775
-0.167086 0.284853 -0.047675
-0.155986 0.284853 -0.058775
-0.155986 0.284853 -0.047675
-0.167086 0.284853 -0.036575
-0.167086 0.284853 -0.025475
-0.155986 0.284853 -0.036575
-0.155986 0.284853 -0.025475
-0.189286 0.273753 -0.003275
-0.189286 0.273753 0.007825
-0.189286 0.273753 0.018925
-0.189286 0.284853 -0.014375
-0.178186 0.284853 -0.014375
-0.178186 0.284853 -0.003275
-0.189286 0.284853 0.007825
-0.178186 0.284853 0.007825
-0.178186 0.284853 0.018925
-0.167086 0.284853 -0.014375
-0.167086 0.284853 -0.003275
-0.155986 0.284853 -0.014375
-0.155986 0.284853 -0.003275
-0.167086 0.284853 0.007825
-0.167086 0.284853 0.018925
-0.155986 0.284853 0.007825
-0.155986 0.284853 0.018925
-0.311386 0.218253 0.030025
-0.311386 0.218253 0.041125
-0.311386 0.229353 0.041125
-0.311386 0.218253 0.052225
-0.311386 0.218253 0.063325
-0.300287 0.229353 0.030025
-0.300287 0.229353 0.041125
-0.300287 0.229353 0.052225
-0.300287 0.229353 0.063325
-0.289186 0.229353 0.063325
-0.300287 0.240453 0.030025
-0.300287 0.240453 0.041125
-0.289186 0.240453 0.030025
-0.289186 0.240453 0.041125
-0.289186 0.240453 0.052225
-0.289186 0.240453 0.063325
-0.311386 0.218253 0.074425
-0.311386 0.218253 0.085525
-0.300287 0.218253 0.074425
-0.300287 0.218253 0.085525
-0.300287 0.229353 0.074425
-0.300287 0.229353 0.085525
-0.289186 0.229353 0.085525
-0.300287 0.218253 0.096625
-0.300287 0.218253 0.107725
-0.300287 0.229353 0.096625
-0.289186 0.229353 0.096625
-0.289186 0.229353 0.107725
-0.289186 0.240453 0.074425
-0.289186 0.240453 0.085525
-0.289186 0.240453 0.096625
-0.278086 0.251553 0.030025
-0.278086 0.251553 0.041125
-0.266986 0.251553 0.030025
-0.266986 0.251553 0.041125
-0.278086 0.240453 0.063325
-0.278086 0.251553 0.052225
-0.278086 0.251553 0.063325
-0.266986 0.251553 0.052225
-0.266986 0.251553 0.063325
-0.255886 0.251553 0.052225
-0.255886 0.251553 0.063325
-0.278086 0.240453 0.074425
-0.278086 0.240453 0.085525
-0.278086 0.251553 0.074425
-0.266986 0.251553 0.074425
-0.266986 0.251553 0.085525
-0.278086 0.240453 0.096625
-0.278086 0.240453 0.107725
-0.266986 0.240453 0.107725
-0.266986 0.251553 0.096625
-0.266986 0.251553 0.107725
-0.255886 0.251553 0.074425
-0.255886 0.251553 0.085525
-0.255886 0.251553 0.096625
-0.255886 0.251553 0.107725
-0.244786 0.251553 0.107725
-0.255886 0.262653 0.030025
-0.255886 0.262653 0.041125
-0.244786 0.262653 0.030025
-0.244786 0.262653 0.041125
-0.255886 0.262653 0.052225
-0.255886 0.262653 0.063325
-0.244786 0.262653 0.052225
-0.244786 0.262653 0.063325
-0.255886 0.262653 0.085525
-0.244786 0.262653 0.074425
-0.244786 0.262653 0.085525
-0.244786 0.262653 0.096625
-0.244786 0.262653 0.107725
-0.289186 0.218253 0.118825
-0.289186 0.218253 0.129925
-0.289186 0.229353 0.118825
-0.289186 0.229353 0.129925
-0.289186 0.218253 0.141025
-0.278086 0.229353 0.118825
-0.278086 0.229353 0.129925
-0.278086 0.218253 0.141025
-0.278086 0.218253 0.152125
-0.278086 0.229353 0.141025
-0.266986 0.218253 0.152125
-0.266986 0.229353 0.141025
-0.266986 0.229353 0.152125
-0.278086 0.240453 0.118825
-0.278086 0.240453 0.129925
-0.266986 0.240453 0.118825
-0.266986 0.240453 0.129925
-0.266986 0.240453 0.141025
-0.255886 0.229353 0.152125
-0.255886 0.240453 0.129925
-0.255886 0.251553 0.118825
-0.255886 0.251553 0.129925
-0.244786 0.251553 0.118825
-0.244786 0.251553 0.129925
-0.255886 0.240453 0.141025
-0.255886 0.240453 0.152125
-0.244786 0.240453 0.141025
-0.244786 0.240453 0.152125
-0.244786 0.251553 0.141025
-0.244786 0.251553 0.152125
-0.266986 0.218253 0.163225
-0.266986 0.218253 0.174325
-0.255886 0.218253 0.174325
-0.255886 0.229353 0.163225
-0.255886 0.229353 0.174325
-0.244786 0.229353 0.163225
-0.244786 0.229353 0.174325
-0.255886 0.218253 0.185425
-0.244786 0.218253 0.185425
-0.244786 0.218253 0.196525
-0.244786 0.229353 0.185425
-0.244786 0.240453 0.163225
-0.233686 0.262653 0.030025
-0.233686 0.262653 0.041125
-0.233686 0.273753 0.041125
-0.222586 0.273753 0.030025
-0.222586 0.273753 0.041125
-0.233686 0.262653 0.052225
-0.233686 0.262653 0.063325
-0.222586 0.262653 0.052225
-0.222586 0.262653 0.063325
-0.222586 0.273753 0.052225
-0.211486 0.273753 0.030025
-0.211486 0.273753 0.041125
-0.200386 0.273753 0.030025
-0.200386 0.273753 0.041125
-0.211486 0.262653 0.063325
-0.211486 0.273753 0.052225
-0.211486 0.273753 0.063325
-0.200386 0.273753 0.052225
-0.200386 0.273753 0.063325
-0.233686 0.262653 0.074425
-0.233686 0.262653 0.085525
-0.222586 0.262653 0.074425
-0.222586 0.262653 0.085525
-0.233686 0.262653 0.096625
-0.233686 0.262653 0.107725
-0.222586 0.262653 0.096625
-0.222586 0.262653 0.107725
-0.211486 0.262653 0.074425
-0.211486 0.262653 0.085525
-0.211486 0.273753 0.074425
-0.200386 0.273753 0.074425
-0.200386 0.273753 0.085525
-0.211486 0.262653 0.096625
-0.211486 0.262653 0.107725
-0.200386 0.262653 0.096625
-0.200386 0.262653 0.107725
-0.200386 0.273753 0.096625
-0.189286 0.273753 0.030025
-0.189286 0.273753 0.041125
-0.178186 0.273753 0.030025
-0.178186 0.273753 0.041125
-0.189286 0.273753 0.052225
-0.189286 0.273753 0.063325
-0.178186 0.273753 0.052225
-0.178186 0.273753 0.063325
-0.178186 0.284853 0.030025
-0.167086 0.273753 0.052225
-0.167086 0.273753 0.063325
-0.155986 0.273753 0.052225
-0.155986 0.273753 0.063325
-0.167086 0.284853 0.030025
-0.167086 0.284853 0.041125
-0.155986 0.284853 0.030025
-0.155986 0.284853 0.041125
-0.155986 0.284853 0.052225
-0.189286 0.273753 0.074425
-0.189286 0.273753 0.085525
-0.178186 0.273753 0.074425
-0.178186 0.273753 0.085525
-0.189286 0.273753 0.096625
-0.189286 0.273753 0.107725
-0.178186 0.273753 0.096625
-0.178186 0.273753 0.107725
-0.167086 0.273753 0.074425
-0.167086 0.273753 0.085525
-0.155986 0.273753 0.074425
-0.155986 0.273753 0.085525
-0.167086 0.273753 0.096625
-0.167086 0.273753 0.107725
-0.155986 0.273753 0.096625
-0.155986 0.273753 0.107725
-0.233686 0.251553 0.118825
-0.233686 0.251553 0.129925
-0.222586 0.251553 0.129925
-0.233686 0.251553 0.141025
-0.233686 0.251553 0.152125
-0.222586 0.251553 0.141025
-0.222586 0.251553 0.152125
-0.211486 0.251553 0.152125
-0.233686 0.218253 0.196525
-0.233686 0.229353 0.185425
-0.233686 0.229353 0.196525
-0.222586 0.229353 0.196525
-0.233686 0.240453 0.163225
-0.233686 0.240453 0.174325
-0.233686 0.251553 0.163225
-0.222586 0.240453 0.174325
-0.222586 0.251553 0.163225
-0.222586 0.251553 0.174325
-0.233686 0.240453 0.185425
-0.222586 0.240453 0.185425
-0.222586 0.240453 0.196525
-0.211486 0.251553 0.163225
-0.211486 0.251553 0.174325
-0.200386 0.251553 0.174325
-0.211486 0.240453 0.185425
-0.211486 0.240453 0.196525
-0.211486 0.251553 0.185425
-0.200386 0.251553 0.185425
-0.200386 0.251553 0.196525
-0.233686 0.262653 0.118825
-0.222586 0.262653 0.118825
-0.222586 0.262653 0.129925
-0.211486 0.262653 0.118825
-0.211486 0.262653 0.129925
-0.200386 0.262653 0.118825
-0.200386 0.262653 0.129925
-0.211486 0.262653 0.141025
-0.211486 0.262653 0.152125
-0.200386 0.262653 0.141025
-0.200386 0.262653 0.152125
-0.200386 0.262653 0.163225
-0.189286 0.251553 0.185425
-0.189286 0.251553 0.196525
-0.178186 0.251553 0.185425
-0.178186 0.251553 0.196525
-0.167086 0.251553 0.196525
-0.155986 0.251553 0.196525
-0.189286 0.262653 0.118825
-0.189286 0.262653 0.129925
-0.178186 0.262653 0.129925
-0.178186 0.273753 0.118825
-0.189286 0.262653 0.141025
-0.189286 0.262653 0.152125
-0.178186 0.262653 0.141025
-0.178186 0.262653 0.152125
-0.167086 0.273753 0.118825
-0.167086 0.273753 0.129925
-0.155986 0.273753 0.118825
-0.155986 0.273753 0.129925
-0.167086 0.262653 0.141025
-0.167086 0.262653 0.152125
-0.167086 0.273753 0.141025
-0.155986 0.262653 0.152125
-0.155986 0.273753 0.141025
-0.155986 0.273753 0.152125
-0.189286 0.262653 0.163225
-0.189286 0.262653 0.174325
-0.178186 0.262653 0.163225
-0.178186 0.262653 0.174325
-0.189286 0.262653 0.185425
-0.178186 0.262653 0.185425
-0.167086 0.262653 0.163225
-0.167086 0.262653 0.174325
-0.155986 0.262653 0.163225
-0.155986 0.262653 0.174325
-0.167086 0.262653 0.185425
-0.155986 0.262653 0.185425
-0.155986 0.262653 0.196525
-0.233686 0.218253 0.207625
-0.233686 0.218253 0.218725
-0.222586 0.218253 0.218725
-0.222586 0.229353 0.207625
-0.222586 0.218253 0.229825
-0.211486 0.218253 0.218725
-0.211486 0.229353 0.207625
-0.211486 0.229353 0.218725
-0.211486 0.218253 0.229825
-0.200386 0.218253 0.229825
-0.200386 0.218253 0.240925
-0.200386 0.229353 0.229825
-0.211486 0.240453 0.207625
-0.200386 0.240453 0.207625
-0.200386 0.240453 0.218725
-0.189286 0.218253 0.240925
-0.189286 0.229353 0.229825
-0.189286 0.229353 0.240925
-0.178186 0.229353 0.240925
-0.189286 0.240453 0.218725
-0.189286 0.251553 0.207625
-0.189286 0.251553 0.218725
-0.178186 0.251553 0.207625
-0.178186 0.251553 0.218725
-0.189286 0.240453 0.229825
-0.178186 0.240453 0.229825
-0.178186 0.240453 0.240925
-0.167086 0.251553 0.207625
-0.167086 0.251553 0.218725
-0.155986 0.251553 0.207625
-0.155986 0.251553 0.218725
-0.167086 0.240453 0.229825
-0.167086 0.240453 0.240925
-0.167086 0.251553 0.229825
-0.155986 0.240453 0.229825
-0.155986 0.240453 0.240925
-0.155986 0.251553 0.229825
-0.189286 0.218253 0.252025
-0.178186 0.218253 0.252025
-0.178186 0.218253 0.263125
-0.178186 0.229353 0.252025
-0.167086 0.218253 0.263125
-0.167086 0.229353 0.252025
-0.167086 0.229353 0.263125
-0.155986 0.229353 0.252025
-0.155986 0.229353 0.263125
-0.167086 0.218253 0.274225
-0.155986 0.218253 0.274225
-0.155986 0.240453 0.252025
-0.122686 0.218253 -0.291875
-0.111586 0.218253 -0.291875
-0.111586 0.229353 -0.291875
-0.144886 0.218253 -0.280775
-0.144886 0.229353 -0.269675
-0.133786 0.218253 -0.280775
-0.133786 0.229353 -0.280775
-0.133786 0.229353 -0.269675
-0.144886 0.229353 -0.258575
-0.133786 0.240453 -0.269675
-0.144886 0.240453 -0.258575
-0.144886 0.240453 -0.247475
-0.144886 0.251553 -0.247475
-0.133786 0.240453 -0.258575
-0.133786 0.251553 -0.247475
-0.122686 0.218253 -0.280775
-0.122686 0.229353 -0.280775
-0.122686 0.229353 -0.269675
-0.111586 0.229353 -0.280775
-0.122686 0.240453 -0.269675
-0.111586 0.240453 -0.280775
-0.111586 0.240453 -0.269675
-0.111586 0.251553 -0.269675
-0.122686 0.240453 -0.258575
-0.122686 0.251553 -0.258575
-0.122686 0.251553 -0.247475
-0.111586 0.251553 -0.258575
-0.111586 0.251553 -0.247475
-0.122686 0.262653 -0.247475
-0.111586 0.262653 -0.247475
-0.100486 0.218253 -0.302975
-0.100486 0.229353 -0.291875
-0.089387 0.218253 -0.302975
-0.089387 0.218253 -0.291875
-0.089387 0.229353 -0.291875
-0.089387 0.240453 -0.291875
-0.078287 0.218253 -0.314075
-0.067186 0.218253 -0.314075
-0.078287 0.218253 -0.302975
-0.078287 0.229353 -0.302975
-0.078287 0.229353 -0.291875
-0.067186 0.218253 -0.302975
-0.067186 0.229353 -0.302975
-0.067186 0.229353 -0.291875
-0.078287 0.240453 -0.291875
-0.067186 0.240453 -0.291875
-0.100486 0.240453 -0.280775
-0.100486 0.240453 -0.269675
-0.100486 0.251553 -0.269675
-0.089387 0.240453 -0.280775
-0.089387 0.251553 -0.269675
-0.100486 0.251553 -0.258575
-0.089387 0.251553 -0.258575
-0.078287 0.240453 -0.280775
-0.078287 0.251553 -0.280775
-0.078287 0.251553 -0.269675
-0.067186 0.251553 -0.280775
-0.067186 0.251553 -0.269675
-0.100486 0.262653 -0.247475
-0.089387 0.262653 -0.247475
-0.067186 0.262653 -0.269675
-0.078287 0.262653 -0.258575
-0.078287 0.262653 -0.247475
-0.067186 0.262653 -0.258575
-0.067186 0.262653 -0.247475
-0.144886 0.251553 -0.236375
-0.144886 0.251553 -0.225275
-0.133786 0.251553 -0.236375
-0.144886 0.262653 -0.225275
-0.133786 0.262653 -0.236375
-0.133786 0.262653 -0.225275
-0.144886 0.262653 -0.214175
-0.144886 0.262653 -0.203075
-0.133786 0.262653 -0.214175
-0.133786 0.273753 -0.203075
-0.122686 0.262653 -0.236375
-0.122686 0.262653 -0.225275
-0.111586 0.262653 -0.236375
-0.111586 0.262653 -0.225275
-0.111586 0.273753 -0.225275
-0.122686 0.273753 -0.214175
-0.122686 0.273753 -0.203075
-0.111586 0.273753 -0.214175
-0.111586 0.273753 -0.203075
-0.144886 0.273753 -0.191975
-0.144886 0.273753 -0.180875
-0.133786 0.273753 -0.191975
-0.133786 0.273753 -0.180875
-0.144886 0.273753 -0.169775
-0.144886 0.273753 -0.158675
-0.133786 0.273753 -0.169775
-0.133786 0.273753 -0.158675
-0.133786 0.284853 -0.158675
-0.122686 0.273753 -0.191975
-0.122686 0.273753 -0.180875
-0.111586 0.273753 -0.191975
-0.111586 0.273753 -0.180875
-0.122686 0.273753 -0.169775
-0.122686 0.284853 -0.169775
-0.122686 0.284853 -0.158675
-0.111586 0.284853 -0.169775
-0.111586 0.284853 -0.158675
-0.100486 0.262653 -0.236375
-0.100486 0.273753 -0.225275
-0.089387 0.262653 -0.236375
-0.089387 0.262653 -0.225275
-0.089387 0.273753 -0.225275
-0.100486 0.273753 -0.214175
-0.100486 0.273753 -0.203075
-0.089387 0.273753 -0.214175
-0.089387 0.273753 -0.203075
-0.078287 0.262653 -0.236375
-0.078287 0.273753 -0.236375
-0.078287 0.273753 -0.225275
-0.067186 0.273753 -0.236375
-0.067186 0.273753 -0.225275
-0.078287 0.273753 -0.214175
-0.078287 0.273753 -0.203075
-0.067186 0.273753 -0.214175
-0.067186 0.273753 -0.203075
-0.100486 0.273753 -0.191975
-0.100486 0.273753 -0.180875
-0.089387 0.273753 -0.191975
-0.089387 0.273753 -0.180875
-0.100486 0.284853 -0.180875
-0.089387 0.284853 -0.180875
-0.100486 0.284853 -0.169775
-0.100486 0.284853 -0.158675
-0.089387 0.284853 -0.169775
-0.089387 0.284853 -0.158675
-0.078287 0.273753 -0.191975
-0.078287 0.273753 -0.180875
-0.067186 0.273753 -0.191975
-0.078287 0.284853 -0.180875
-0.067186 0.284853 -0.180875
-0.078287 0.284853 -0.169775
-0.078287 0.284853 -0.158675
-0.067186 0.284853 -0.169775
-0.067186 0.284853 -0.158675
-0.056086 0.218253 -0.314075
-0.044986 0.218253 -0.314075
-0.056086 0.218253 -0.302975
-0.056086 0.229353 -0.302975
-0.044986 0.229353 -0.302975
-0.056086 0.240453 -0.291875
-0.044986 0.240453 -0.302975
-0.044986 0.240453 -0.291875
-0.044986 0.251553 -0.291875
-0.033886 0.218253 -0.314075
-0.033886 0.229353 -0.314075
-0.022787 0.218253 -0.314075
-0.022787 0.229353 -0.314075
-0.033886 0.229353 -0.302975
