ply
format ascii 1.0
element vertex 1627
property float x
property float y
property float z
end_header
-0.208636 -0.414297 0.100675
-0.208636 -0.414297 0.115675
-0.208636 -0.414297 0.130675
-0.208636 -0.414297 0.145675
-0.193636 -0.414297 0.115675
-0.193636 -0.399297 0.115675
-0.193636 -0.414297 0.130675
-0.193636 -0.414297 0.145675
-0.193636 -0.399297 0.130675
-0.178636 -0.414297 0.130675
-0.178636 -0.414297 0.145675
-0.178636 -0.399297 0.130675
-0.163636 -0.414297 -0.274325
-0.163636 -0.399297 -0.274325
-0.148636 -0.414297 -0.289325
-0.148636 -0.414297 -0.274325
-0.148636 -0.399297 -0.289325
-0.148636 -0.399297 -0.274325
-0.163636 -0.384297 -0.289325
-0.163636 -0.384297 -0.274325
-0.163636 -0.369297 -0.289325
-0.163636 -0.369297 -0.274325
-0.148636 -0.384297 -0.289325
-0.148636 -0.384297 -0.274325
-0.148636 -0.369297 -0.289325
-0.118636 -0.399297 -0.304325
-0.133636 -0.414297 -0.289325
-0.133636 -0.399297 -0.289325
-0.118636 -0.414297 -0.289325
-0.118636 -0.399297 -0.289325
-0.133636 -0.369297 -0.304325
-0.118636 -0.384297 -0.304325
-0.118636 -0.369297 -0.304325
-0.133636 -0.384297 -0.289325
-0.133636 -0.369297 -0.289325
-0.103636 -0.414297 -0.304325
-0.103636 -0.399297 -0.304325
-0.088636 -0.414297 -0.304325
-0.088636 -0.399297 -0.304325
-0.103636 -0.384297 -0.304325
-0.103636 -0.369297 -0.304325
-0.088636 -0.384297 -0.304325
-0.088636 -0.369297 -0.304325
-0.073636 -0.414297 -0.304325
-0.073636 -0.399297 -0.304325
-0.058636 -0.414297 -0.304325
-0.058636 -0.399297 -0.304325
-0.073636 -0.384297 -0.319325
-0.073636 -0.384297 -0.304325
-0.073636 -0.369297 -0.319325
-0.058636 -0.384297 -0.319325
-0.058636 -0.369297 -0.319325
-0.088636 -0.414297 -0.094325
-0.073636 -0.414297 -0.139325
-0.073636 -0.414297 -0.124325
-0.058636 -0.414297 -0.139325
-0.058636 -0.414297 -0.124325
-0.073636 -0.414297 -0.109325
-0.073636 -0.414297 -0.094325
-0.058636 -0.414297 -0.109325
-0.058636 -0.414297 -0.094325
-0.043637 -0.414297 -0.319325
-0.043637 -0.414297 -0.304325
-0.043637 -0.399297 -0.319325
-0.028636 -0.414297 -0.319325
-0.028636 -0.399297 -0.319325
-0.043637 -0.384297 -0.319325
-0.043637 -0.369297 -0.319325
-0.028636 -0.384297 -0.319325
-0.028636 -0.369297 -0.319325
-0.013637 -0.414297 -0.319325
-0.013637 -0.399297 -0.319325
0.001364 -0.414297 -0.319325
0.001364 -0.399297 -0.319325
-0.013637 -0.384297 -0.319325
-0.013637 -0.369297 -0.319325
0.001364 -0.384297 -0.319325
0.001364 -0.369297 -0.319325
0.016363 -0.414297 -0.319325
0.016363 -0.399297 -0.319325
0.031364 -0.414297 -0.319325
0.031364 -0.399297 -0.319325
0.016363 -0.384297 -0.319325
0.016363 -0.369297 -0.319325
0.031364 -0.384297 -0.319325
0.031364 -0.369297 -0.319325
0.046363 -0.414297 -0.319325
0.046363 -0.399297 -0.319325
0.061364 -0.414297 -0.304325
0.061364 -0.399297 -0.304325
0.046363 -0.384297 -0.319325
0.046363 -0.369297 -0.319325
0.061364 -0.384297 -0.319325
0.061364 -0.384297 -0.304325
0.061364 -0.369297 -0.319325
-0.043637 -0.414297 -0.139325
-0.043637 -0.414297 -0.124325
-0.028636 -0.414297 -0.124325
-0.043637 -0.414297 -0.109325
-0.043637 -0.414297 -0.094325
-0.028636 -0.414297 -0.109325
-0.028636 -0.414297 -0.094325
0.001364 -0.414297 -0.094325
0.031364 -0.414297 -0.124325
0.016363 -0.414297 -0.109325
0.016363 -0.414297 -0.094325
0.031364 -0.414297 -0.109325
0.031364 -0.414297 -0.094325
0.046363 -0.414297 -0.109325
0.046363 -0.414297 -0.094325
-0.163636 -0.414297 -0.079325
-0.163636 -0.414297 -0.064325
-0.148636 -0.414297 -0.079325
-0.148636 -0.414297 -0.064325
-0.148636 -0.399297 -0.064325
-0.163636 -0.414297 -0.049325
-0.163636 -0.399297 -0.049325
-0.148636 -0.399297 -0.049325
-0.148636 -0.384297 -0.049325
-0.133636 -0.414297 -0.079325
-0.133636 -0.414297 -0.064325
-0.133636 -0.399297 -0.064325
-0.118636 -0.414297 -0.079325
-0.118636 -0.414297 -0.064325
-0.118636 -0.399297 -0.064325
-0.133636 -0.384297 -0.064325
-0.118636 -0.384297 -0.064325
-0.133636 -0.384297 -0.049325
-0.103636 -0.414297 -0.079325
-0.103636 -0.414297 -0.064325
-0.103636 -0.399297 -0.064325
-0.088636 -0.414297 -0.079325
-0.088636 -0.399297 -0.064325
-0.088636 -0.414297 -0.049325
-0.088636 -0.399297 -0.049325
-0.103636 -0.384297 -0.064325
-0.073636 -0.414297 -0.079325
-0.073636 -0.399297 -0.079325
-0.073636 -0.399297 -0.064325
-0.058636 -0.414297 -0.079325
-0.058636 -0.414297 -0.064325
-0.058636 -0.399297 -0.064325
-0.058636 -0.399297 -0.049325
-0.058636 -0.384297 -0.049325
-0.163636 -0.414297 0.145675
-0.163636 -0.399297 0.130675
-0.163636 -0.399297 0.145675
-0.148636 -0.399297 0.145675
-0.043637 -0.414297 -0.079325
-0.043637 -0.414297 -0.064325
-0.043637 -0.399297 -0.064325
-0.028636 -0.414297 -0.079325
-0.028636 -0.414297 -0.064325
-0.028636 -0.399297 -0.064325
-0.028636 -0.399297 -0.049325
-0.043637 -0.384297 -0.049325
-0.028636 -0.384297 -0.049325
-0.028636 -0.369297 -0.049325
-0.028636 -0.369297 -0.034325
-0.013637 -0.414297 -0.079325
-0.013637 -0.414297 -0.064325
-0.013637 -0.399297 -0.064325
0.001364 -0.414297 -0.079325
0.001364 -0.414297 -0.064325
0.001364 -0.399297 -0.064325
-0.013637 -0.399297 -0.049325
0.001364 -0.399297 -0.049325
-0.013637 -0.384297 -0.049325
-0.013637 -0.384297 -0.034325
-0.013637 -0.369297 -0.034325
0.001364 -0.384297 -0.049325
0.001364 -0.384297 -0.034325
0.001364 -0.369297 -0.034325
0.001364 -0.369297 -0.019325
0.016363 -0.414297 -0.079325
0.016363 -0.414297 -0.064325
0.031364 -0.414297 -0.079325
0.031364 -0.414297 -0.064325
0.016363 -0.399297 -0.049325
0.031364 -0.399297 -0.049325
0.031364 -0.399297 -0.034325
0.016363 -0.384297 -0.034325
0.016363 -0.369297 -0.034325
0.031364 -0.384297 -0.034325
0.046363 -0.414297 -0.079325
0.046363 -0.414297 -0.064325
0.061364 -0.414297 -0.064325
0.046363 -0.414297 -0.049325
0.046363 -0.414297 -0.034325
0.046363 -0.399297 -0.034325
0.061364 -0.414297 -0.049325
0.061364 -0.414297 -0.034325
0.016363 -0.369297 -0.019325
0.031364 -0.384297 -0.019325
0.031364 -0.369297 -0.019325
0.031364 -0.369297 -0.004325
0.046363 -0.399297 -0.019325
0.061364 -0.414297 -0.019325
0.061364 -0.399297 -0.019325
0.061364 -0.399297 -0.004325
0.046363 -0.384297 -0.019325
0.046363 -0.384297 -0.004325
0.046363 -0.369297 -0.004325
0.061364 -0.384297 -0.004325
0.046363 -0.369297 0.010675
0.061364 -0.384297 0.010675
0.061364 -0.369297 0.010675
0.061364 -0.369297 0.025675
0.001364 -0.369297 0.145675
0.061364 -0.369297 0.040675
0.061364 -0.369297 0.085675
0.016363 -0.384297 0.145675
0.016363 -0.369297 0.145675
0.031364 -0.384297 0.145675
0.031364 -0.369297 0.130675
0.031364 -0.369297 0.145675
0.046363 -0.399297 0.145675
0.061364 -0.399297 0.130675
0.061364 -0.399297 0.145675
0.046363 -0.369297 0.115675
0.061364 -0.384297 0.115675
0.061364 -0.369297 0.100675
0.061364 -0.369297 0.115675
0.046363 -0.384297 0.130675
0.046363 -0.384297 0.145675
0.046363 -0.369297 0.130675
0.061364 -0.384297 0.130675
0.061364 -0.384297 0.145675
-0.268636 -0.384297 0.160675
-0.268636 -0.369297 0.160675
-0.268636 -0.369297 0.175675
-0.253636 -0.384297 0.160675
-0.253636 -0.384297 0.175675
-0.253636 -0.369297 0.175675
-0.238636 -0.384297 0.160675
-0.238636 -0.384297 0.175675
-0.253636 -0.369297 0.190675
-0.238636 -0.384297 0.190675
-0.238636 -0.384297 0.205675
-0.238636 -0.369297 0.190675
-0.238636 -0.369297 0.205675
-0.223636 -0.384297 0.190675
-0.223636 -0.384297 0.205675
-0.223636 -0.369297 0.205675
-0.208636 -0.384297 0.205675
-0.178636 -0.414297 0.160675
-0.223636 -0.384297 0.220675
-0.223636 -0.369297 0.220675
-0.208636 -0.384297 0.220675
-0.208636 -0.384297 0.235675
-0.208636 -0.369297 0.220675
-0.208636 -0.369297 0.235675
-0.193636 -0.384297 0.235675
-0.193636 -0.369297 0.235675
-0.178636 -0.384297 0.235675
-0.193636 -0.369297 0.250675
-0.178636 -0.384297 0.250675
-0.178636 -0.369297 0.250675
-0.178636 -0.369297 0.265675
-0.163636 -0.414297 0.160675
-0.163636 -0.414297 0.175675
-0.163636 -0.399297 0.160675
-0.148636 -0.414297 0.160675
-0.148636 -0.414297 0.175675
-0.163636 -0.414297 0.190675
-0.148636 -0.414297 0.190675
-0.133636 -0.414297 0.175675
-0.118636 -0.414297 0.175675
-0.133636 -0.414297 0.190675
-0.133636 -0.414297 0.205675
-0.118636 -0.414297 0.190675
-0.118636 -0.399297 0.190675
-0.163636 -0.414297 0.235675
-0.163636 -0.414297 0.250675
-0.148636 -0.414297 0.250675
-0.148636 -0.414297 0.265675
-0.163636 -0.384297 0.250675
-0.163636 -0.384297 0.265675
-0.163636 -0.369297 0.265675
-0.148636 -0.384297 0.250675
-0.148636 -0.384297 0.265675
-0.148636 -0.369297 0.265675
-0.133636 -0.414297 0.250675
-0.133636 -0.414297 0.265675
-0.118636 -0.414297 0.250675
-0.118636 -0.414297 0.265675
-0.133636 -0.384297 0.265675
-0.118636 -0.369297 0.265675
-0.103636 -0.414297 0.175675
-0.103636 -0.414297 0.190675
-0.088636 -0.414297 0.190675
-0.088636 -0.414297 0.205675
-0.073636 -0.414297 0.190675
-0.073636 -0.414297 0.205675
-0.058636 -0.414297 0.190675
-0.058636 -0.414297 0.205675
-0.103636 -0.414297 0.265675
-0.088636 -0.414297 0.265675
-0.073636 -0.414297 0.220675
-0.073636 -0.414297 0.235675
-0.058636 -0.414297 0.220675
-0.058636 -0.414297 0.235675
-0.073636 -0.414297 0.250675
-0.058636 -0.414297 0.250675
-0.058636 -0.414297 0.265675
-0.148636 -0.369297 0.280675
-0.133636 -0.384297 0.280675
-0.133636 -0.369297 0.280675
-0.118636 -0.384297 0.280675
-0.118636 -0.369297 0.280675
-0.118636 -0.369297 0.295675
-0.103636 -0.414297 0.280675
-0.088636 -0.414297 0.280675
-0.103636 -0.384297 0.280675
-0.103636 -0.384297 0.295675
-0.103636 -0.369297 0.280675
-0.103636 -0.369297 0.295675
-0.088636 -0.384297 0.280675
-0.088636 -0.384297 0.295675
-0.088636 -0.369297 0.295675
-0.088636 -0.369297 0.310675
-0.073636 -0.414297 0.280675
-0.073636 -0.414297 0.295675
-0.058636 -0.414297 0.280675
-0.058636 -0.414297 0.295675
-0.073636 -0.384297 0.280675
-0.073636 -0.384297 0.295675
-0.073636 -0.369297 0.295675
-0.058636 -0.384297 0.295675
-0.058636 -0.369297 0.295675
-0.073636 -0.369297 0.310675
-0.058636 -0.369297 0.310675
-0.028636 -0.399297 0.175675
-0.043637 -0.414297 0.190675
-0.043637 -0.414297 0.205675
-0.028636 -0.414297 0.190675
-0.028636 -0.414297 0.205675
-0.028636 -0.399297 0.190675
-0.013637 -0.399297 0.160675
-0.013637 -0.399297 0.175675
0.001364 -0.399297 0.175675
-0.013637 -0.414297 0.205675
-0.013637 -0.399297 0.190675
0.001364 -0.414297 0.205675
0.001364 -0.399297 0.190675
-0.013637 -0.384297 0.160675
-0.013637 -0.369297 0.160675
0.001364 -0.384297 0.160675
0.001364 -0.369297 0.160675
-0.043637 -0.414297 0.220675
-0.043637 -0.414297 0.235675
-0.028636 -0.414297 0.220675
-0.028636 -0.414297 0.235675
-0.043637 -0.414297 0.250675
-0.043637 -0.414297 0.265675
-0.028636 -0.414297 0.250675
-0.028636 -0.414297 0.265675
-0.013637 -0.414297 0.220675
-0.013637 -0.414297 0.235675
0.001364 -0.414297 0.220675
0.001364 -0.414297 0.235675
-0.013637 -0.414297 0.250675
-0.013637 -0.414297 0.265675
0.001364 -0.414297 0.250675
0.001364 -0.414297 0.265675
0.046363 -0.429297 0.250675
0.061364 -0.429297 0.250675
0.016363 -0.399297 0.160675
0.016363 -0.399297 0.175675
0.031364 -0.414297 0.175675
0.031364 -0.399297 0.160675
0.031364 -0.399297 0.175675
0.016363 -0.414297 0.190675
0.016363 -0.414297 0.205675
0.031364 -0.414297 0.190675
0.031364 -0.414297 0.205675
0.016363 -0.384297 0.160675
0.031364 -0.384297 0.160675
0.046363 -0.414297 0.175675
0.046363 -0.399297 0.160675
0.046363 -0.399297 0.175675
0.061364 -0.414297 0.160675
0.061364 -0.414297 0.175675
0.061364 -0.399297 0.160675
0.046363 -0.414297 0.190675
0.046363 -0.414297 0.205675
0.061364 -0.414297 0.190675
0.061364 -0.414297 0.205675
0.016363 -0.414297 0.220675
0.016363 -0.414297 0.235675
0.031364 -0.414297 0.220675
0.031364 -0.414297 0.235675
0.016363 -0.414297 0.250675
0.016363 -0.414297 0.265675
0.031364 -0.414297 0.250675
0.031364 -0.414297 0.265675
0.046363 -0.414297 0.220675
0.046363 -0.414297 0.235675
0.061364 -0.414297 0.220675
0.061364 -0.414297 0.235675
0.046363 -0.414297 0.250675
0.046363 -0.414297 0.265675
0.061364 -0.414297 0.250675
0.061364 -0.414297 0.265675
-0.043637 -0.414297 0.280675
-0.043637 -0.414297 0.295675
-0.028636 -0.414297 0.280675
-0.028636 -0.414297 0.295675
-0.043637 -0.384297 0.295675
-0.043637 -0.369297 0.295675
-0.028636 -0.384297 0.295675
-0.028636 -0.369297 0.295675
-0.043637 -0.369297 0.310675
-0.028636 -0.384297 0.310675
-0.028636 -0.369297 0.310675
-0.013637 -0.414297 0.280675
-0.013637 -0.414297 0.295675
0.001364 -0.414297 0.280675
0.001364 -0.414297 0.295675
-0.013637 -0.384297 0.295675
-0.013637 -0.369297 0.295675
0.001364 -0.384297 0.295675
-0.013637 -0.384297 0.310675
-0.013637 -0.369297 0.310675
0.001364 -0.384297 0.310675
0.001364 -0.369297 0.310675
0.016363 -0.414297 0.280675
0.016363 -0.414297 0.295675
0.031364 -0.414297 0.280675
0.031364 -0.414297 0.295675
0.016363 -0.384297 0.295675
0.031364 -0.384297 0.295675
0.016363 -0.384297 0.310675
0.016363 -0.369297 0.310675
0.031364 -0.384297 0.310675
0.031364 -0.369297 0.310675
0.046363 -0.414297 0.280675
0.046363 -0.414297 0.295675
0.061364 -0.414297 0.280675
0.061364 -0.414297 0.295675
0.061364 -0.399297 0.295675
0.046363 -0.384297 0.295675
0.046363 -0.369297 0.295675
0.061364 -0.384297 0.295675
0.061364 -0.369297 0.295675
0.046363 -0.384297 0.310675
0.046363 -0.369297 0.310675
0.061364 -0.384297 0.310675
0.061364 -0.369297 0.310675
-0.298636 -0.354297 -0.154325
-0.298636 -0.339297 -0.169325
-0.298636 -0.339297 -0.154325
-0.298636 -0.324297 -0.169325
-0.298636 -0.324297 -0.154325
-0.298636 -0.309297 -0.169325
-0.298636 -0.309297 -0.154325
-0.328636 -0.324297 -0.094325
-0.328636 -0.309297 -0.094325
-0.313636 -0.339297 -0.124325
-0.298636 -0.354297 -0.139325
-0.298636 -0.354297 -0.124325
-0.298636 -0.339297 -0.139325
-0.298636 -0.339297 -0.124325
-0.313636 -0.354297 -0.109325
-0.313636 -0.354297 -0.094325
-0.313636 -0.339297 -0.109325
-0.313636 -0.339297 -0.094325
-0.298636 -0.354297 -0.109325
-0.313636 -0.324297 -0.139325
-0.313636 -0.324297 -0.124325
-0.313636 -0.309297 -0.139325
-0.313636 -0.309297 -0.124325
-0.298636 -0.324297 -0.139325
-0.298636 -0.309297 -0.139325
-0.313636 -0.324297 -0.109325
-0.313636 -0.324297 -0.094325
-0.313636 -0.309297 -0.109325
-0.313636 -0.309297 -0.094325
-0.298636 -0.294297 -0.184325
-0.298636 -0.279297 -0.184325
-0.298636 -0.294297 -0.169325
-0.298636 -0.294297 -0.154325
-0.298636 -0.279297 -0.169325
-0.298636 -0.279297 -0.154325
-0.298636 -0.264297 -0.184325
-0.313636 -0.249297 -0.154325
-0.298636 -0.264297 -0.169325
-0.298636 -0.264297 -0.154325
-0.298636 -0.249297 -0.169325
-0.298636 -0.249297 -0.154325
-0.328636 -0.294297 -0.094325
-0.328636 -0.279297 -0.109325
-0.328636 -0.279297 -0.094325
-0.328636 -0.264297 -0.109325
-0.328636 -0.264297 -0.094325
-0.328636 -0.249297 -0.109325
-0.328636 -0.249297 -0.094325
-0.313636 -0.294297 -0.139325
-0.313636 -0.294297 -0.124325
-0.313636 -0.279297 -0.139325
-0.313636 -0.279297 -0.124325
-0.313636 -0.294297 -0.109325
-0.313636 -0.279297 -0.109325
-0.313636 -0.264297 -0.139325
-0.313636 -0.264297 -0.124325
-0.313636 -0.249297 -0.139325
-0.313636 -0.249297 -0.124325
-0.313636 -0.264297 -0.109325
-0.313636 -0.249297 -0.109325
-0.298636 -0.234297 -0.184325
-0.298636 -0.219297 -0.184325
-0.313636 -0.234297 -0.154325
-0.313636 -0.219297 -0.154325
-0.298636 -0.234297 -0.169325
-0.298636 -0.234297 -0.154325
-0.298636 -0.219297 -0.169325
-0.298636 -0.219297 -0.154325
-0.298636 -0.204297 -0.184325
-0.298636 -0.189297 -0.184325
-0.313636 -0.204297 -0.154325
-0.313636 -0.189297 -0.154325
-0.298636 -0.204297 -0.169325
-0.298636 -0.204297 -0.154325
-0.298636 -0.189297 -0.169325
-0.298636 -0.189297 -0.154325
-0.328636 -0.234297 -0.109325
-0.328636 -0.234297 -0.094325
-0.328636 -0.219297 -0.109325
-0.328636 -0.219297 -0.094325
-0.328636 -0.204297 -0.109325
-0.328636 -0.204297 -0.094325
-0.328636 -0.189297 -0.109325
-0.328636 -0.189297 -0.094325
-0.313636 -0.234297 -0.139325
-0.313636 -0.234297 -0.124325
-0.313636 -0.219297 -0.139325
-0.313636 -0.219297 -0.124325
-0.313636 -0.234297 -0.109325
-0.313636 -0.219297 -0.109325
-0.313636 -0.204297 -0.139325
-0.313636 -0.204297 -0.124325
-0.313636 -0.189297 -0.139325
-0.313636 -0.189297 -0.124325
-0.313636 -0.204297 -0.109325
-0.313636 -0.189297 -0.109325
-0.298636 -0.174297 -0.184325
-0.298636 -0.159297 -0.184325
-0.313636 -0.174297 -0.154325
-0.313636 -0.159297 -0.154325
-0.298636 -0.174297 -0.169325
-0.298636 -0.174297 -0.154325
-0.298636 -0.159297 -0.169325
-0.298636 -0.159297 -0.154325
-0.298636 -0.144297 -0.184325
-0.298636 -0.129297 -0.184325
-0.313636 -0.144297 -0.154325
-0.313636 -0.129297 -0.154325
-0.298636 -0.144297 -0.169325
-0.298636 -0.144297 -0.154325
-0.298636 -0.129297 -0.169325
-0.298636 -0.129297 -0.154325
-0.328636 -0.174297 -0.109325
-0.328636 -0.174297 -0.094325
-0.328636 -0.159297 -0.109325
-0.328636 -0.159297 -0.094325
-0.328636 -0.144297 -0.109325
-0.328636 -0.144297 -0.094325
-0.328636 -0.129297 -0.109325
-0.328636 -0.129297 -0.094325
-0.313636 -0.174297 -0.139325
-0.313636 -0.174297 -0.124325
-0.313636 -0.159297 -0.139325
-0.313636 -0.159297 -0.124325
-0.313636 -0.159297 -0.109325
-0.313636 -0.144297 -0.139325
-0.313636 -0.144297 -0.124325
-0.313636 -0.129297 -0.139325
-0.313636 -0.129297 -0.124325
-0.268636 -0.339297 -0.214325
-0.268636 -0.324297 -0.214325
-0.268636 -0.309297 -0.214325
-0.238636 -0.339297 -0.244325
-0.253636 -0.354297 -0.214325
-0.253636 -0.339297 -0.229325
-0.253636 -0.339297 -0.214325
-0.238636 -0.354297 -0.229325
-0.238636 -0.354297 -0.214325
-0.238636 -0.339297 -0.229325
-0.238636 -0.324297 -0.244325
-0.238636 -0.309297 -0.244325
-0.253636 -0.324297 -0.229325
-0.253636 -0.324297 -0.214325
-0.253636 -0.309297 -0.229325
-0.253636 -0.309297 -0.214325
-0.238636 -0.324297 -0.229325
-0.268636 -0.294297 -0.214325
-0.268636 -0.279297 -0.214325
-0.268636 -0.264297 -0.214325
-0.268636 -0.249297 -0.214325
-0.253636 -0.279297 -0.244325
-0.238636 -0.294297 -0.244325
-0.238636 -0.279297 -0.244325
-0.253636 -0.294297 -0.229325
-0.253636 -0.279297 -0.229325
-0.238636 -0.264297 -0.259325
-0.238636 -0.264297 -0.244325
-0.238636 -0.249297 -0.259325
-0.238636 -0.249297 -0.244325
-0.253636 -0.264297 -0.229325
-0.253636 -0.249297 -0.229325
-0.208636 -0.339297 -0.274325
-0.208636 -0.324297 -0.274325
-0.208636 -0.309297 -0.274325
-0.193636 -0.354297 -0.274325
-0.193636 -0.339297 -0.274325
-0.178636 -0.354297 -0.289325
-0.178636 -0.354297 -0.274325
-0.178636 -0.339297 -0.289325
-0.178636 -0.339297 -0.274325
-0.193636 -0.324297 -0.289325
-0.193636 -0.324297 -0.274325
-0.193636 -0.309297 -0.289325
-0.193636 -0.309297 -0.274325
-0.178636 -0.324297 -0.289325
-0.178636 -0.309297 -0.289325
-0.223636 -0.354297 -0.244325
-0.223636 -0.339297 -0.259325
-0.223636 -0.339297 -0.244325
-0.208636 -0.354297 -0.259325
-0.208636 -0.339297 -0.259325
-0.223636 -0.354297 -0.229325
-0.223636 -0.324297 -0.259325
-0.223636 -0.324297 -0.244325
-0.223636 -0.309297 -0.259325
-0.223636 -0.309297 -0.244325
-0.208636 -0.324297 -0.259325
-0.208636 -0.309297 -0.259325
-0.193636 -0.354297 -0.259325
-0.193636 -0.339297 -0.259325
-0.208636 -0.294297 -0.274325
-0.208636 -0.279297 -0.274325
-0.208636 -0.264297 -0.274325
-0.208636 -0.249297 -0.274325
-0.178636 -0.294297 -0.304325
-0.178636 -0.279297 -0.304325
-0.193636 -0.294297 -0.289325
-0.193636 -0.294297 -0.274325
-0.193636 -0.279297 -0.289325
-0.193636 -0.279297 -0.274325
-0.178636 -0.294297 -0.289325
-0.178636 -0.279297 -0.289325
-0.193636 -0.264297 -0.289325
-0.193636 -0.264297 -0.274325
-0.193636 -0.249297 -0.289325
-0.193636 -0.249297 -0.274325
-0.178636 -0.264297 -0.289325
-0.178636 -0.249297 -0.289325
-0.223636 -0.294297 -0.259325
-0.223636 -0.279297 -0.259325
-0.208636 -0.294297 -0.259325
-0.223636 -0.264297 -0.259325
-0.223636 -0.249297 -0.259325
-0.283636 -0.354297 -0.184325
-0.283636 -0.339297 -0.184325
-0.268636 -0.354297 -0.199325
-0.268636 -0.354297 -0.184325
-0.268636 -0.339297 -0.199325
-0.268636 -0.339297 -0.184325
-0.283636 -0.354297 -0.169325
-0.283636 -0.354297 -0.154325
-0.283636 -0.339297 -0.169325
-0.283636 -0.324297 -0.199325
-0.283636 -0.324297 -0.184325
-0.283636 -0.309297 -0.199325
-0.283636 -0.309297 -0.184325
-0.268636 -0.324297 -0.199325
-0.268636 -0.309297 -0.199325
-0.283636 -0.324297 -0.169325
-0.283636 -0.309297 -0.169325
-0.253636 -0.354297 -0.199325
-0.283636 -0.294297 -0.199325
-0.283636 -0.294297 -0.184325
-0.283636 -0.279297 -0.199325
-0.283636 -0.279297 -0.184325
-0.268636 -0.294297 -0.199325
-0.268636 -0.279297 -0.199325
-0.283636 -0.264297 -0.199325
-0.283636 -0.264297 -0.184325
-0.283636 -0.249297 -0.199325
-0.283636 -0.249297 -0.184325
-0.268636 -0.264297 -0.199325
-0.268636 -0.234297 -0.214325
-0.268636 -0.219297 -0.214325
-0.268636 -0.204297 -0.229325
-0.268636 -0.204297 -0.214325
-0.268636 -0.189297 -0.214325
-0.253636 -0.234297 -0.244325
-0.238636 -0.234297 -0.259325
-0.238636 -0.234297 -0.244325
-0.238636 -0.219297 -0.244325
-0.253636 -0.234297 -0.229325
-0.253636 -0.219297 -0.229325
-0.238636 -0.204297 -0.259325
-0.238636 -0.204297 -0.244325
-0.238636 -0.189297 -0.259325
-0.238636 -0.189297 -0.244325
-0.253636 -0.204297 -0.229325
-0.253636 -0.189297 -0.229325
-0.268636 -0.174297 -0.214325
-0.268636 -0.159297 -0.214325
-0.268636 -0.144297 -0.214325
-0.268636 -0.129297 -0.214325
-0.253636 -0.174297 -0.244325
-0.238636 -0.174297 -0.259325
-0.238636 -0.174297 -0.244325
-0.238636 -0.159297 -0.244325
-0.253636 -0.174297 -0.229325
-0.253636 -0.159297 -0.229325
-0.238636 -0.144297 -0.259325
-0.238636 -0.144297 -0.244325
-0.238636 -0.129297 -0.259325
-0.238636 -0.129297 -0.244325
-0.253636 -0.144297 -0.229325
-0.253636 -0.129297 -0.229325
-0.253636 -0.129297 -0.214325
-0.208636 -0.234297 -0.274325
-0.208636 -0.219297 -0.274325
-0.208636 -0.204297 -0.274325
-0.208636 -0.189297 -0.274325
-0.178636 -0.234297 -0.304325
-0.193636 -0.234297 -0.289325
-0.193636 -0.234297 -0.274325
-0.193636 -0.219297 -0.289325
-0.193636 -0.219297 -0.274325
-0.178636 -0.234297 -0.289325
-0.178636 -0.219297 -0.289325
-0.178636 -0.204297 -0.304325
-0.193636 -0.204297 -0.289325
-0.193636 -0.204297 -0.274325
-0.193636 -0.189297 -0.289325
-0.193636 -0.189297 -0.274325
-0.178636 -0.204297 -0.289325
-0.178636 -0.189297 -0.289325
-0.223636 -0.234297 -0.259325
-0.223636 -0.219297 -0.259325
-0.223636 -0.204297 -0.259325
-0.223636 -0.189297 -0.259325
-0.208636 -0.189297 -0.259325
-0.208636 -0.174297 -0.274325
-0.208636 -0.159297 -0.274325
-0.208636 -0.144297 -0.274325
-0.208636 -0.129297 -0.274325
-0.178636 -0.174297 -0.304325
-0.178636 -0.159297 -0.304325
-0.193636 -0.174297 -0.289325
-0.193636 -0.174297 -0.274325
-0.193636 -0.159297 -0.289325
-0.193636 -0.159297 -0.274325
-0.178636 -0.174297 -0.289325
-0.178636 -0.159297 -0.289325
-0.178636 -0.129297 -0.304325
-0.193636 -0.144297 -0.289325
-0.193636 -0.144297 -0.274325
-0.193636 -0.129297 -0.289325
-0.193636 -0.129297 -0.274325
-0.178636 -0.144297 -0.289325
-0.178636 -0.129297 -0.289325
-0.223636 -0.174297 -0.259325
-0.223636 -0.159297 -0.259325
-0.208636 -0.174297 -0.259325
-0.208636 -0.159297 -0.259325
-0.223636 -0.144297 -0.259325
-0.223636 -0.129297 -0.259325
-0.208636 -0.144297 -0.259325
-0.208636 -0.129297 -0.259325
-0.283636 -0.234297 -0.199325
-0.283636 -0.234297 -0.184325
-0.283636 -0.219297 -0.199325
-0.283636 -0.219297 -0.184325
-0.268636 -0.234297 -0.199325
-0.268636 -0.219297 -0.199325
-0.283636 -0.204297 -0.199325
-0.283636 -0.204297 -0.184325
-0.283636 -0.189297 -0.199325
-0.283636 -0.189297 -0.184325
-0.268636 -0.204297 -0.199325
-0.268636 -0.189297 -0.199325
-0.283636 -0.174297 -0.199325
-0.283636 -0.174297 -0.184325
-0.283636 -0.159297 -0.199325
-0.283636 -0.159297 -0.184325
-0.268636 -0.174297 -0.199325
-0.268636 -0.159297 -0.199325
-0.283636 -0.144297 -0.199325
-0.283636 -0.144297 -0.184325
-0.283636 -0.129297 -0.199325
-0.283636 -0.129297 -0.184325
-0.268636 -0.144297 -0.199325
-0.268636 -0.129297 -0.199325
-0.328636 -0.354297 -0.064325
-0.328636 -0.339297 -0.079325
-0.328636 -0.339297 -0.064325
-0.328636 -0.354297 -0.049325
-0.328636 -0.354297 -0.034325
-0.328636 -0.339297 -0.049325
-0.328636 -0.339297 -0.034325
-0.328636 -0.324297 -0.079325
-0.328636 -0.324297 -0.064325
-0.328636 -0.309297 -0.079325
-0.328636 -0.309297 -0.064325
-0.343636 -0.309297 -0.049325
-0.343636 -0.309297 -0.034325
-0.328636 -0.324297 -0.049325
-0.328636 -0.324297 -0.034325
-0.328636 -0.309297 -0.049325
-0.313636 -0.354297 -0.079325
-0.313636 -0.354297 -0.064325
-0.313636 -0.339297 -0.079325
-0.313636 -0.354297 -0.049325
-0.328636 -0.354297 -0.019325
-0.328636 -0.354297 -0.004325
-0.328636 -0.339297 -0.019325
-0.328636 -0.339297 -0.004325
-0.328636 -0.354297 0.010675
-0.328636 -0.354297 0.025675
-0.328636 -0.339297 0.010675
-0.328636 -0.339297 0.025675
-0.343636 -0.324297 -0.019325
-0.343636 -0.309297 -0.019325
-0.343636 -0.309297 -0.004325
-0.328636 -0.324297 -0.019325
-0.328636 -0.324297 -0.004325
-0.343636 -0.309297 0.010675
-0.328636 -0.324297 0.010675
-0.328636 -0.324297 0.025675
-0.328636 -0.309297 0.010675
-0.328636 -0.309297 0.025675
-0.328636 -0.294297 -0.079325
-0.328636 -0.294297 -0.064325
-0.328636 -0.279297 -0.079325
-0.328636 -0.279297 -0.064325
-0.343636 -0.294297 -0.049325
-0.343636 -0.294297 -0.034325
-0.343636 -0.279297 -0.049325
-0.343636 -0.279297 -0.034325
-0.328636 -0.294297 -0.049325
-0.328636 -0.279297 -0.049325
-0.328636 -0.264297 -0.079325
-0.328636 -0.264297 -0.064325
-0.328636 -0.249297 -0.079325
-0.328636 -0.249297 -0.064325
-0.343636 -0.264297 -0.049325
-0.343636 -0.264297 -0.034325
-0.343636 -0.249297 -0.049325
-0.343636 -0.249297 -0.034325
-0.328636 -0.264297 -0.049325
-0.328636 -0.249297 -0.049325
-0.343636 -0.294297 -0.019325
-0.343636 -0.294297 -0.004325
-0.343636 -0.279297 -0.019325
-0.343636 -0.279297 -0.004325
-0.343636 -0.294297 0.010675
-0.343636 -0.279297 0.010675
-0.328636 -0.294297 0.025675
-0.328636 -0.279297 0.025675
-0.343636 -0.264297 -0.019325
-0.343636 -0.264297 -0.004325
-0.343636 -0.249297 -0.019325
-0.343636 -0.249297 -0.004325
-0.343636 -0.264297 0.010675
-0.343636 -0.249297 0.010675
-0.343636 -0.249297 0.025675
-0.328636 -0.264297 0.025675
-0.328636 -0.249297 0.025675
-0.328636 -0.354297 0.040675
-0.328636 -0.339297 0.040675
-0.328636 -0.339297 0.055675
-0.328636 -0.324297 0.040675
-0.328636 -0.324297 0.055675
-0.328636 -0.309297 0.040675
-0.328636 -0.309297 0.055675
-0.328636 -0.324297 0.070675
-0.328636 -0.309297 0.070675
-0.328636 -0.309297 0.085675
-0.313636 -0.354297 0.040675
-0.313636 -0.354297 0.055675
-0.313636 -0.339297 0.055675
-0.313636 -0.354297 0.070675
-0.313636 -0.354297 0.085675
-0.313636 -0.339297 0.070675
-0.313636 -0.339297 0.085675
-0.313636 -0.324297 0.070675
-0.313636 -0.324297 0.085675
-0.313636 -0.309297 0.085675
-0.313636 -0.354297 0.100675
-0.313636 -0.339297 0.100675
-0.313636 -0.339297 0.115675
-0.298636 -0.354297 0.100675
-0.298636 -0.354297 0.115675
-0.298636 -0.339297 0.115675
-0.298636 -0.354297 0.130675
-0.298636 -0.339297 0.130675
-0.298636 -0.339297 0.145675
-0.313636 -0.324297 0.100675
-0.313636 -0.324297 0.115675
-0.313636 -0.309297 0.100675
-0.313636 -0.309297 0.115675
-0.298636 -0.324297 0.115675
-0.313636 -0.309297 0.130675
-0.298636 -0.324297 0.130675
-0.298636 -0.324297 0.145675
-0.298636 -0.309297 0.130675
-0.298636 -0.309297 0.145675
-0.328636 -0.294297 0.040675
-0.328636 -0.294297 0.055675
-0.328636 -0.279297 0.040675
-0.328636 -0.279297 0.055675
-0.328636 -0.294297 0.070675
-0.328636 -0.294297 0.085675
-0.328636 -0.279297 0.070675
-0.328636 -0.279297 0.085675
-0.328636 -0.264297 0.040675
-0.328636 -0.264297 0.055675
-0.328636 -0.249297 0.040675
-0.328636 -0.249297 0.055675
-0.328636 -0.264297 0.070675
-0.328636 -0.264297 0.085675
-0.328636 -0.249297 0.070675
-0.328636 -0.249297 0.085675
-0.313636 -0.294297 0.085675
-0.328636 -0.264297 0.100675
-0.313636 -0.294297 0.100675
-0.313636 -0.294297 0.115675
-0.313636 -0.279297 0.100675
-0.313636 -0.279297 0.115675
-0.313636 -0.294297 0.130675
-0.313636 -0.279297 0.130675
-0.298636 -0.294297 0.130675
-0.298636 -0.294297 0.145675
-0.298636 -0.279297 0.130675
-0.298636 -0.279297 0.145675
-0.313636 -0.264297 0.100675
-0.313636 -0.264297 0.115675
-0.313636 -0.249297 0.100675
-0.313636 -0.249297 0.115675
-0.313636 -0.264297 0.130675
-0.313636 -0.249297 0.130675
-0.298636 -0.264297 0.145675
-0.298636 -0.249297 0.145675
-0.343636 -0.219297 -0.064325
-0.328636 -0.234297 -0.079325
-0.328636 -0.234297 -0.064325
-0.328636 -0.219297 -0.079325
-0.328636 -0.219297 -0.064325
-0.343636 -0.234297 -0.049325
-0.343636 -0.234297 -0.034325
-0.343636 -0.219297 -0.049325
-0.343636 -0.219297 -0.034325
-0.328636 -0.234297 -0.049325
-0.343636 -0.204297 -0.064325
-0.328636 -0.204297 -0.079325
-0.328636 -0.204297 -0.064325
-0.328636 -0.189297 -0.079325
-0.328636 -0.189297 -0.064325
-0.343636 -0.204297 -0.049325
-0.343636 -0.204297 -0.034325
-0.343636 -0.189297 -0.049325
-0.343636 -0.189297 -0.034325
-0.343636 -0.234297 -0.019325
-0.343636 -0.234297 -0.004325
-0.343636 -0.219297 -0.019325
-0.343636 -0.219297 -0.004325
-0.343636 -0.234297 0.010675
-0.343636 -0.234297 0.025675
-0.343636 -0.219297 0.010675
-0.343636 -0.219297 0.025675
-0.328636 -0.234297 0.025675
-0.343636 -0.204297 -0.019325
-0.343636 -0.204297 -0.004325
-0.343636 -0.189297 -0.019325
-0.343636 -0.189297 -0.004325
-0.343636 -0.204297 0.010675
-0.343636 -0.204297 0.025675
-0.343636 -0.189297 0.010675
-0.343636 -0.189297 0.025675
-0.328636 -0.174297 -0.079325
-0.328636 -0.174297 -0.064325
-0.328636 -0.159297 -0.079325
-0.328636 -0.159297 -0.064325
-0.343636 -0.174297 -0.049325
-0.343636 -0.174297 -0.034325
-0.343636 -0.159297 -0.049325
-0.343636 -0.159297 -0.034325
-0.328636 -0.174297 -0.049325
-0.328636 -0.159297 -0.049325
-0.328636 -0.144297 -0.079325
-0.328636 -0.144297 -0.064325
-0.328636 -0.129297 -0.079325
-0.328636 -0.129297 -0.064325
-0.343636 -0.144297 -0.049325
-0.343636 -0.144297 -0.034325
-0.343636 -0.129297 -0.049325
-0.343636 -0.129297 -0.034325
-0.328636 -0.144297 -0.049325
-0.328636 -0.129297 -0.049325
-0.343636 -0.174297 -0.019325
-0.343636 -0.174297 -0.004325
-0.343636 -0.159297 -0.019325
-0.343636 -0.159297 -0.004325
-0.343636 -0.174297 0.010675
-0.343636 -0.174297 0.025675
-0.343636 -0.159297 0.010675
-0.343636 -0.159297 0.025675
-0.343636 -0.144297 -0.019325
-0.343636 -0.144297 -0.004325
-0.343636 -0.129297 -0.019325
-0.343636 -0.129297 -0.004325
-0.343636 -0.144297 0.010675
-0.343636 -0.144297 0.025675
-0.343636 -0.129297 0.010675
-0.343636 -0.129297 0.025675
-0.343636 -0.219297 0.040675
-0.328636 -0.234297 0.040675
-0.328636 -0.234297 0.055675
-0.328636 -0.219297 0.040675
-0.328636 -0.219297 0.055675
-0.328636 -0.234297 0.070675
-0.328636 -0.234297 0.085675
-0.328636 -0.219297 0.070675
-0.328636 -0.219297 0.085675
-0.343636 -0.204297 0.040675
-0.343636 -0.189297 0.040675
-0.328636 -0.204297 0.040675
-0.328636 -0.204297 0.055675
-0.328636 -0.189297 0.055675
-0.328636 -0.204297 0.070675
-0.328636 -0.204297 0.085675
-0.328636 -0.189297 0.070675
-0.328636 -0.189297 0.085675
-0.328636 -0.234297 0.100675
-0.328636 -0.219297 0.100675
-0.328636 -0.204297 0.100675
-0.328636 -0.189297 0.100675
-0.313636 -0.234297 0.100675
-0.313636 -0.234297 0.115675
-0.313636 -0.219297 0.100675
-0.313636 -0.219297 0.115675
-0.313636 -0.234297 0.130675
-0.313636 -0.219297 0.130675
-0.298636 -0.234297 0.130675
-0.298636 -0.234297 0.145675
-0.298636 -0.219297 0.130675
-0.298636 -0.219297 0.145675
-0.313636 -0.204297 0.100675
-0.313636 -0.204297 0.115675
-0.313636 -0.189297 0.100675
-0.313636 -0.189297 0.115675
-0.313636 -0.204297 0.130675
-0.313636 -0.189297 0.130675
-0.298636 -0.204297 0.130675
-0.298636 -0.204297 0.145675
-0.298636 -0.189297 0.130675
-0.298636 -0.189297 0.145675
-0.343636 -0.174297 0.040675
-0.343636 -0.159297 0.040675
-0.328636 -0.174297 0.055675
-0.328636 -0.159297 0.040675
-0.328636 -0.159297 0.055675
-0.328636 -0.174297 0.070675
-0.328636 -0.174297 0.085675
-0.328636 -0.159297 0.070675
-0.328636 -0.159297 0.085675
-0.343636 -0.144297 0.040675
-0.343636 -0.129297 0.040675
-0.328636 -0.144297 0.040675
-0.328636 -0.144297 0.055675
-0.328636 -0.129297 0.055675
-0.328636 -0.144297 0.070675
-0.328636 -0.144297 0.085675
-0.328636 -0.129297 0.070675
-0.328636 -0.129297 0.085675
-0.328636 -0.174297 0.100675
-0.328636 -0.159297 0.100675
-0.328636 -0.144297 0.100675
-0.328636 -0.129297 0.100675
-0.313636 -0.174297 0.100675
-0.313636 -0.174297 0.115675
-0.313636 -0.159297 0.100675
-0.313636 -0.159297 0.115675
-0.313636 -0.174297 0.130675
-0.313636 -0.159297 0.130675
-0.298636 -0.174297 0.130675
-0.298636 -0.174297 0.145675
-0.298636 -0.159297 0.130675
-0.298636 -0.159297 0.145675
-0.313636 -0.144297 0.100675
-0.313636 -0.144297 0.115675
-0.313636 -0.129297 0.100675
-0.313636 -0.129297 0.115675
-0.313636 -0.144297 0.130675
-0.313636 -0.129297 0.130675
-0.298636 -0.144297 0.130675
-0.298636 -0.144297 0.145675
-0.298636 -0.129297 0.130675
-0.298636 -0.129297 0.145675
-0.283636 -0.354297 0.130675
-0.283636 -0.354297 0.145675
-0.283636 -0.339297 0.145675
-0.283636 -0.324297 0.145675
-0.298636 -0.114297 -0.184325
-0.298636 -0.099297 -0.184325
-0.313636 -0.114297 -0.154325
-0.313636 -0.099297 -0.154325
-0.298636 -0.114297 -0.169325
-0.298636 -0.114297 -0.154325
-0.298636 -0.099297 -0.169325
-0.298636 -0.099297 -0.154325
-0.298636 -0.084297 -0.184325
-0.298636 -0.069297 -0.184325
-0.313636 -0.084297 -0.154325
-0.313636 -0.069297 -0.154325
-0.298636 -0.084297 -0.169325
-0.298636 -0.084297 -0.154325
-0.298636 -0.069297 -0.169325
-0.298636 -0.069297 -0.154325
-0.328636 -0.114297 -0.109325
-0.328636 -0.114297 -0.094325
-0.328636 -0.099297 -0.109325
-0.328636 -0.099297 -0.094325
-0.328636 -0.084297 -0.109325
-0.328636 -0.084297 -0.094325
-0.328636 -0.069297 -0.109325
-0.328636 -0.069297 -0.094325
-0.313636 -0.114297 -0.139325
-0.313636 -0.114297 -0.124325
-0.313636 -0.099297 -0.139325
-0.313636 -0.099297 -0.124325
-0.313636 -0.084297 -0.139325
-0.313636 -0.084297 -0.124325
-0.313636 -0.069297 -0.139325
-0.313636 -0.069297 -0.124325
-0.298636 -0.054297 -0.184325
-0.298636 -0.039297 -0.184325
-0.313636 -0.054297 -0.154325
-0.313636 -0.039297 -0.154325
-0.298636 -0.054297 -0.169325
-0.298636 -0.054297 -0.154325
-0.298636 -0.039297 -0.169325
-0.298636 -0.039297 -0.154325
-0.298636 -0.024297 -0.184325
-0.298636 -0.009297 -0.184325
-0.313636 -0.024297 -0.154325
-0.313636 -0.009297 -0.154325
-0.298636 -0.024297 -0.169325
-0.298636 -0.024297 -0.154325
-0.298636 -0.009297 -0.169325
-0.298636 -0.009297 -0.154325
-0.328636 -0.054297 -0.109325
-0.328636 -0.054297 -0.094325
-0.328636 -0.039297 -0.109325
-0.328636 -0.039297 -0.094325
-0.328636 -0.024297 -0.109325
-0.328636 -0.024297 -0.094325
-0.328636 -0.009297 -0.109325
-0.328636 -0.009297 -0.094325
-0.313636 -0.054297 -0.139325
-0.313636 -0.054297 -0.124325
-0.313636 -0.039297 -0.139325
-0.313636 -0.039297 -0.124325
-0.313636 -0.054297 -0.109325
-0.313636 -0.024297 -0.139325
-0.313636 -0.024297 -0.124325
-0.313636 -0.009297 -0.139325
-0.313636 -0.009297 -0.124325
-0.298636 0.005703 -0.184325
-0.298636 0.020703 -0.184325
-0.313636 0.005703 -0.154325
-0.313636 0.020703 -0.154325
-0.298636 0.005703 -0.169325
-0.298636 0.005703 -0.154325
-0.298636 0.020703 -0.169325
-0.298636 0.020703 -0.154325
-0.298636 0.035703 -0.184325
-0.298636 0.050703 -0.184325
-0.313636 0.035703 -0.154325
-0.313636 0.050703 -0.154325
-0.298636 0.035703 -0.169325
-0.298636 0.035703 -0.154325
-0.298636 0.050703 -0.169325
-0.298636 0.050703 -0.154325
-0.328636 0.005703 -0.109325
-0.328636 0.005703 -0.094325
-0.328636 0.020703 -0.109325
-0.328636 0.020703 -0.094325
-0.328636 0.035703 -0.109325
-0.328636 0.035703 -0.094325
-0.328636 0.050703 -0.109325
-0.328636 0.050703 -0.094325
-0.313636 0.005703 -0.139325
-0.313636 0.005703 -0.124325
-0.313636 0.020703 -0.139325
-0.313636 0.020703 -0.124325
-0.313636 0.020703 -0.109325
-0.313636 0.035703 -0.139325
-0.313636 0.035703 -0.124325
-0.313636 0.050703 -0.139325
-0.313636 0.050703 -0.124325
-0.298636 0.065703 -0.184325
-0.298636 0.080703 -0.184325
-0.313636 0.065703 -0.154325
-0.313636 0.080703 -0.154325
-0.298636 0.065703 -0.169325
-0.298636 0.065703 -0.154325
-0.298636 0.080703 -0.169325
-0.298636 0.080703 -0.154325
-0.298636 0.095703 -0.184325
-0.313636 0.095703 -0.154325
-0.313636 0.110703 -0.154325
-0.298636 0.095703 -0.169325
-0.298636 0.095703 -0.154325
-0.298636 0.110703 -0.169325
-0.298636 0.110703 -0.154325
-0.328636 0.065703 -0.109325
-0.328636 0.065703 -0.094325
-0.328636 0.080703 -0.109325
-0.328636 0.080703 -0.094325
-0.328636 0.095703 -0.109325
-0.328636 0.095703 -0.094325
-0.328636 0.110703 -0.109325
-0.328636 0.110703 -0.094325
-0.313636 0.065703 -0.139325
-0.313636 0.065703 -0.124325
-0.313636 0.080703 -0.139325
-0.313636 0.080703 -0.124325
-0.313636 0.065703 -0.109325
-0.313636 0.095703 -0.139325
-0.313636 0.095703 -0.124325
-0.313636 0.110703 -0.139325
-0.313636 0.110703 -0.124325
-0.313636 0.110703 -0.109325
-0.268636 -0.114297 -0.214325
-0.268636 -0.099297 -0.214325
-0.268636 -0.084297 -0.214325
-0.268636 -0.069297 -0.214325
-0.238636 -0.114297 -0.259325
-0.238636 -0.114297 -0.244325
-0.238636 -0.099297 -0.259325
-0.238636 -0.099297 -0.244325
-0.253636 -0.114297 -0.229325
-0.253636 -0.099297 -0.229325
-0.253636 -0.069297 -0.244325
-0.238636 -0.084297 -0.244325
-0.238636 -0.069297 -0.244325
-0.253636 -0.084297 -0.229325
-0.253636 -0.069297 -0.229325
-0.268636 -0.054297 -0.229325
-0.268636 -0.054297 -0.214325
-0.268636 -0.039297 -0.214325
-0.268636 -0.024297 -0.229325
-0.268636 -0.024297 -0.214325
-0.268636 -0.009297 -0.229325
-0.268636 -0.009297 -0.214325
-0.238636 -0.054297 -0.244325
-0.238636 -0.039297 -0.244325
-0.253636 -0.054297 -0.229325
-0.253636 -0.039297 -0.229325
-0.238636 -0.024297 -0.244325
-0.238636 -0.009297 -0.244325
-0.253636 -0.024297 -0.229325
-0.253636 -0.009297 -0.229325
-0.208636 -0.114297 -0.274325
-0.208636 -0.099297 -0.274325
-0.208636 -0.084297 -0.274325
-0.208636 -0.069297 -0.274325
-0.178636 -0.099297 -0.304325
-0.193636 -0.114297 -0.289325
-0.193636 -0.114297 -0.274325
-0.193636 -0.099297 -0.289325
-0.193636 -0.099297 -0.274325
-0.178636 -0.114297 -0.289325
-0.178636 -0.099297 -0.289325
-0.178636 -0.084297 -0.304325
-0.193636 -0.084297 -0.289325
-0.193636 -0.084297 -0.274325
-0.193636 -0.069297 -0.289325
-0.193636 -0.069297 -0.274325
-0.178636 -0.084297 -0.289325
-0.178636 -0.069297 -0.289325
-0.223636 -0.114297 -0.259325
-0.223636 -0.099297 -0.259325
-0.208636 -0.114297 -0.259325
-0.208636 -0.099297 -0.259325
-0.223636 -0.084297 -0.259325
-0.223636 -0.069297 -0.259325
-0.208636 -0.084297 -0.259325
-0.208636 -0.069297 -0.259325
-0.208636 -0.054297 -0.274325
-0.208636 -0.039297 -0.274325
-0.208636 -0.024297 -0.274325
-0.208636 -0.009297 -0.274325
-0.193636 -0.054297 -0.289325
-0.193636 -0.054297 -0.274325
-0.193636 -0.039297 -0.289325
-0.193636 -0.039297 -0.274325
-0.178636 -0.054297 -0.289325
-0.178636 -0.039297 -0.289325
-0.193636 -0.024297 -0.289325
-0.193636 -0.024297 -0.274325
-0.193636 -0.009297 -0.289325
-0.193636 -0.009297 -0.274325
-0.178636 -0.024297 -0.289325
-0.178636 -0.009297 -0.289325
-0.223636 -0.054297 -0.259325
-0.223636 -0.039297 -0.259325
-0.208636 -0.054297 -0.259325
-0.208636 -0.039297 -0.259325
-0.223636 -0.024297 -0.259325
-0.223636 -0.009297 -0.259325
-0.208636 -0.009297 -0.259325
-0.283636 -0.114297 -0.199325
-0.283636 -0.114297 -0.184325
-0.283636 -0.099297 -0.199325
-0.283636 -0.099297 -0.184325
-0.268636 -0.114297 -0.199325
-0.268636 -0.099297 -0.199325
-0.283636 -0.084297 -0.199325
-0.283636 -0.084297 -0.184325
-0.283636 -0.069297 -0.199325
-0.283636 -0.069297 -0.184325
-0.268636 -0.084297 -0.199325
-0.268636 -0.069297 -0.199325
-0.283636 -0.054297 -0.199325
-0.283636 -0.054297 -0.184325
-0.283636 -0.039297 -0.199325
-0.283636 -0.039297 -0.184325
-0.283636 -0.024297 -0.199325
-0.283636 -0.024297 -0.184325
-0.283636 -0.009297 -0.199325
-0.283636 -0.009297 -0.184325
-0.268636 -0.009297 -0.199325
-0.268636 0.005703 -0.229325
-0.268636 0.005703 -0.214325
-0.268636 0.020703 -0.229325
-0.268636 0.020703 -0.214325
-0.268636 0.035703 -0.214325
-0.268636 0.050703 -0.229325
-0.268636 0.050703 -0.214325
-0.253636 0.020703 -0.244325
-0.238636 0.005703 -0.259325
-0.238636 0.005703 -0.244325
-0.238636 0.020703 -0.244325
-0.253636 0.005703 -0.229325
-0.253636 0.020703 -0.229325
-0.253636 0.035703 -0.244325
-0.253636 0.050703 -0.244325
-0.238636 0.035703 -0.244325
-0.238636 0.050703 -0.244325
-0.253636 0.035703 -0.229325
-0.253636 0.050703 -0.229325
-0.268636 0.065703 -0.229325
-0.268636 0.065703 -0.214325
-0.268636 0.080703 -0.214325
-0.268636 0.095703 -0.214325
-0.268636 0.110703 -0.214325
-0.253636 0.065703 -0.244325
-0.253636 0.080703 -0.244325
-0.238636 0.065703 -0.259325
-0.238636 0.065703 -0.244325
-0.238636 0.080703 -0.244325
-0.253636 0.065703 -0.229325
-0.253636 0.080703 -0.229325
-0.253636 0.095703 -0.244325
-0.253636 0.110703 -0.244325
-0.238636 0.095703 -0.259325
-0.238636 0.095703 -0.244325
-0.238636 0.110703 -0.244325
-0.253636 0.095703 -0.229325
-0.253636 0.110703 -0.229325
-0.208636 0.005703 -0.274325
-0.208636 0.020703 -0.274325
-0.208636 0.035703 -0.274325
-0.208636 0.050703 -0.274325
-0.193636 0.005703 -0.289325
-0.193636 0.005703 -0.274325
-0.193636 0.020703 -0.289325
-0.193636 0.020703 -0.274325
-0.178636 0.005703 -0.289325
-0.178636 0.020703 -0.289325
-0.193636 0.035703 -0.289325
-0.193636 0.035703 -0.274325
-0.193636 0.050703 -0.289325
-0.193636 0.050703 -0.274325
-0.178636 0.035703 -0.289325
-0.178636 0.050703 -0.289325
-0.223636 0.005703 -0.259325
-0.223636 0.020703 -0.259325
-0.208636 0.005703 -0.259325
-0.223636 0.035703 -0.259325
-0.223636 0.050703 -0.259325
-0.208636 0.065703 -0.274325
-0.208636 0.080703 -0.274325
-0.208636 0.095703 -0.274325
-0.208636 0.110703 -0.274325
-0.193636 0.065703 -0.289325
-0.193636 0.065703 -0.274325
-0.193636 0.080703 -0.289325
-0.193636 0.080703 -0.274325
-0.178636 0.065703 -0.289325
-0.178636 0.080703 -0.289325
-0.193636 0.095703 -0.289325
-0.193636 0.095703 -0.274325
-0.193636 0.110703 -0.289325
-0.193636 0.110703 -0.274325
-0.178636 0.095703 -0.289325
-0.178636 0.110703 -0.289325
-0.223636 0.065703 -0.259325
-0.223636 0.080703 -0.259325
-0.208636 0.065703 -0.259325
-0.208636 0.080703 -0.259325
-0.223636 0.095703 -0.259325
-0.223636 0.110703 -0.259325
-0.208636 0.110703 -0.259325
-0.283636 0.005703 -0.199325
-0.283636 0.005703 -0.184325
-0.283636 0.020703 -0.199325
-0.283636 0.020703 -0.184325
-0.268636 0.005703 -0.199325
-0.268636 0.020703 -0.199325
-0.283636 0.035703 -0.199325
-0.283636 0.035703 -0.184325
-0.283636 0.050703 -0.199325
-0.283636 0.050703 -0.184325
-0.268636 0.035703 -0.199325
-0.268636 0.050703 -0.199325
-0.283636 0.065703 -0.199325
-0.283636 0.065703 -0.184325
-0.283636 0.080703 -0.199325
-0.283636 0.080703 -0.184325
-0.283636 0.095703 -0.199325
-0.283636 0.095703 -0.184325
-0.283636 0.110703 -0.199325
-0.283636 0.110703 -0.184325
-0.268636 0.095703 -0.199325
-0.268636 0.110703 -0.199325
-0.328636 -0.114297 -0.079325
-0.328636 -0.114297 -0.064325
-0.328636 -0.099297 -0.079325
-0.328636 -0.099297 -0.064325
-0.343636 -0.114297 -0.049325
-0.343636 -0.114297 -0.034325
-0.343636 -0.099297 -0.049325
-0.343636 -0.099297 -0.034325
-0.328636 -0.114297 -0.049325
-0.328636 -0.099297 -0.049325
-0.328636 -0.084297 -0.079325
-0.328636 -0.084297 -0.064325
-0.328636 -0.069297 -0.079325
-0.328636 -0.069297 -0.064325
-0.343636 -0.084297 -0.049325
-0.343636 -0.084297 -0.034325
-0.343636 -0.069297 -0.049325
-0.343636 -0.069297 -0.034325
-0.328636 -0.084297 -0.049325
-0.328636 -0.069297 -0.049325
-0.343636 -0.114297 -0.019325
-0.343636 -0.114297 -0.004325
-0.343636 -0.099297 -0.019325
-0.343636 -0.099297 -0.004325
-0.343636 -0.114297 0.010675
-0.343636 -0.114297 0.025675
-0.343636 -0.099297 0.010675
-0.343636 -0.099297 0.025675
-0.343636 -0.084297 -0.019325
-0.343636 -0.084297 -0.004325
-0.343636 -0.069297 -0.019325
-0.343636 -0.069297 -0.004325
-0.343636 -0.084297 0.010675
-0.343636 -0.084297 0.025675
-0.343636 -0.069297 0.010675
-0.343636 -0.069297 0.025675
-0.328636 -0.054297 -0.079325
-0.328636 -0.054297 -0.064325
-0.328636 -0.039297 -0.079325
-0.328636 -0.039297 -0.064325
-0.343636 -0.054297 -0.049325
-0.343636 -0.054297 -0.034325
-0.343636 -0.039297 -0.049325
-0.343636 -0.039297 -0.034325
-0.328636 -0.054297 -0.049325
-0.328636 -0.039297 -0.049325
-0.328636 -0.024297 -0.079325
-0.328636 -0.024297 -0.064325
-0.328636 -0.009297 -0.079325
-0.328636 -0.009297 -0.064325
-0.343636 -0.024297 -0.034325
-0.343636 -0.009297 -0.049325
-0.343636 -0.009297 -0.034325
-0.328636 -0.024297 -0.049325
-0.328636 -0.009297 -0.049325
-0.343636 -0.054297 -0.019325
-0.343636 -0.054297 -0.004325
-0.343636 -0.039297 -0.019325
-0.343636 -0.039297 -0.004325
-0.343636 -0.054297 0.010675
-0.343636 -0.054297 0.025675
-0.343636 -0.039297 0.010675
-0.343636 -0.039297 0.025675
-0.343636 -0.024297 -0.019325
-0.343636 -0.024297 -0.004325
-0.343636 -0.009297 -0.019325
-0.343636 -0.009297 -0.004325
-0.343636 -0.024297 0.010675
-0.343636 -0.024297 0.025675
-0.343636 -0.009297 0.010675
-0.343636 -0.009297 0.025675
-0.343636 -0.114297 0.040675
-0.343636 -0.114297 0.055675
-0.343636 -0.099297 0.040675
-0.343636 -0.099297 0.055675
-0.328636 -0.114297 0.055675
-0.328636 -0.099297 0.055675
-0.328636 -0.114297 0.070675
-0.328636 -0.114297 0.085675
-0.328636 -0.099297 0.070675
-0.328636 -0.099297 0.085675
-0.343636 -0.084297 0.040675
-0.343636 -0.069297 0.040675
-0.343636 -0.069297 0.055675
-0.328636 -0.084297 0.055675
-0.328636 -0.069297 0.055675
-0.328636 -0.084297 0.070675
-0.328636 -0.084297 0.085675
-0.328636 -0.069297 0.070675
-0.328636 -0.069297 0.085675
-0.328636 -0.114297 0.100675
-0.328636 -0.099297 0.100675
-0.328636 -0.084297 0.100675
-0.328636 -0.069297 0.100675
-0.313636 -0.114297 0.115675
-0.313636 -0.099297 0.100675
-0.313636 -0.099297 0.115675
-0.313636 -0.114297 0.130675
-0.313636 -0.099297 0.130675
-0.298636 -0.114297 0.130675
-0.298636 -0.114297 0.145675
-0.298636 -0.099297 0.130675
-0.298636 -0.099297 0.145675
-0.313636 -0.084297 0.100675
-0.313636 -0.084297 0.115675
-0.313636 -0.069297 0.100675
-0.313636 -0.069297 0.115675
-0.313636 -0.084297 0.130675
-0.313636 -0.069297 0.130675
-0.298636 -0.084297 0.130675
-0.298636 -0.084297 0.145675
-0.298636 -0.069297 0.130675
-0.298636 -0.069297 0.145675
-0.343636 -0.054297 0.040675
-0.343636 -0.054297 0.055675
-0.343636 -0.039297 0.040675
-0.328636 -0.054297 0.055675
-0.328636 -0.039297 0.055675
-0.328636 -0.054297 0.070675
-0.328636 -0.054297 0.085675
-0.328636 -0.039297 0.070675
-0.328636 -0.039297 0.085675
-0.343636 -0.024297 0.040675
-0.343636 -0.009297 0.040675
-0.343636 -0.009297 0.055675
-0.328636 -0.024297 0.055675
-0.328636 -0.009297 0.055675
-0.328636 -0.024297 0.070675
-0.328636 -0.024297 0.085675
-0.328636 -0.009297 0.070675
-0.328636 -0.009297 0.085675
-0.328636 -0.054297 0.100675
-0.328636 -0.024297 0.100675
-0.328636 -0.009297 0.100675
-0.313636 -0.054297 0.100675
-0.313636 -0.054297 0.115675
-0.313636 -0.039297 0.100675
-0.313636 -0.039297 0.115675
-0.313636 -0.054297 0.130675
-0.313636 -0.039297 0.130675
-0.298636 -0.054297 0.145675
-0.298636 -0.039297 0.130675
-0.298636 -0.039297 0.145675
-0.313636 -0.024297 0.100675
-0.313636 -0.024297 0.115675
-0.313636 -0.009297 0.100675
-0.313636 -0.009297 0.115675
-0.313636 -0.024297 0.130675
-0.313636 -0.009297 0.130675
-0.298636 -0.024297 0.145675
-0.298636 -0.009297 0.145675
-0.328636 0.005703 -0.079325
-0.328636 0.005703 -0.064325
-0.328636 0.020703 -0.079325
-0.328636 0.020703 -0.064325
-0.343636 0.005703 -0.049325
-0.343636 0.005703 -0.034325
-0.343636 0.020703 -0.049325
-0.343636 0.020703 -0.034325
-0.328636 0.005703 -0.049325
-0.328636 0.020703 -0.049325
-0.328636 0.035703 -0.079325
-0.328636 0.035703 -0.064325
-0.328636 0.050703 -0.079325
-0.328636 0.050703 -0.064325
-0.343636 0.035703 -0.049325
-0.343636 0.035703 -0.034325
-0.343636 0.050703 -0.049325
-0.343636 0.050703 -0.034325
-0.328636 0.035703 -0.049325
-0.328636 0.050703 -0.049325
-0.343636 0.005703 -0.019325
-0.343636 0.005703 -0.004325
-0.343636 0.020703 -0.019325
-0.343636 0.020703 -0.004325
-0.343636 0.005703 0.010675
-0.343636 0.005703 0.025675
-0.343636 0.020703 0.010675
-0.343636 0.020703 0.025675
-0.343636 0.035703 -0.019325
-0.343636 0.035703 -0.004325
-0.343636 0.050703 -0.019325
-0.343636 0.050703 -0.004325
