ply
format ascii 1.0
element vertex 1649
property float x
property float y
property float z
end_header
0.215495 -0.139762 -0.265854
-0.215404 -0.135765 -0.266089
0.211809 -0.129869 -0.269066
-0.215954 -0.129547 -0.265742
0.216069 -0.124115 -0.266313
-0.216493 -0.123553 -0.265441
0.213142 -0.119618 -0.268479
-0.216112 -0.117259 -0.265885
0.213735 -0.113277 -0.268055
-0.213790 -0.109535 -0.267723
0.215565 -0.104868 -0.266493
-0.216592 -0.102572 -0.265456
0.216337 -0.099391 -0.265732
0.215542 -0.093397 -0.266171
-0.215840 -0.093786 -0.265772
0.213176 -0.087639 -0.267876
-0.212259 -0.087674 -0.268336
-0.209960 -0.081278 -0.269841
-0.215043 -0.082396 -0.266058
0.212233 -0.079506 -0.268545
-0.215531 -0.076106 -0.265527
0.213104 -0.073048 -0.267907
0.215645 -0.067263 -0.265982
-0.212771 -0.068091 -0.267396
-0.215459 -0.061092 -0.265170
0.212352 -0.058871 -0.268662
-0.209992 -0.058886 -0.269260
0.216746 -0.054118 -0.265303
-0.212095 -0.053398 -0.267529
-0.212555 -0.047242 -0.267034
0.216076 -0.044270 -0.265905
-0.212987 -0.041610 -0.266611
0.215133 -0.032814 -0.266713
-0.212548 -0.032074 -0.266953
0.215932 -0.027106 -0.266268
0.213416 -0.022394 -0.268218
-0.213062 -0.022343 -0.266835
0.216476 -0.016677 -0.266201
-0.210278 -0.015568 -0.269127
0.213347 -0.012041 -0.268530
-0.215618 -0.011617 -0.265124
0.213174 -0.005032 -0.268693
-0.213500 -0.006568 -0.266876
0.213281 0.000549 -0.268540
-0.209668 0.000651 -0.269857
-0.215293 0.002810 -0.265721
0.215898 0.009330 -0.266232
-0.212817 0.009223 -0.267662
0.211720 0.014062 -0.269295
-0.212565 0.015313 -0.267938
0.213089 0.019331 -0.268009
0.212651 0.024941 -0.268101
-0.212072 0.023486 -0.268504
0.215486 0.029836 -0.265793
0.209711 0.029209 -0.270122
-0.216256 0.029367 -0.265461
0.212011 0.034125 -0.268320
0.212658 0.039864 -0.267784
-0.213172 0.039874 -0.267881
-0.212342 0.045459 -0.268392
0.212465 0.048798 -0.268157
0.212976 0.054495 -0.268055
-0.213224 0.054577 -0.267534
-0.212370 0.060590 -0.268121
0.212706 0.064491 -0.268754
0.213004 0.070025 -0.268713
-0.215750 0.070051 -0.266007
0.216103 0.075585 -0.266493
-0.216619 0.081358 -0.265471
0.216913 0.084779 -0.266038
-0.216059 0.087710 -0.265869
0.215960 0.095970 -0.266636
-0.214061 0.096511 -0.267198
0.214740 0.101442 -0.267432
0.216253 0.106884 -0.266432
-0.211808 0.106353 -0.268499
-0.215285 0.113460 -0.265487
0.216873 0.116682 -0.265961
-0.213070 0.121817 -0.266753
0.212809 0.126014 -0.268468
-0.209294 0.131604 -0.269203
0.211791 0.137148 -0.268698
-0.212022 0.136571 -0.266748
0.214527 0.143280 -0.266262
0.209358 0.144285 -0.270117
-0.211832 0.142273 -0.266509
0.214790 0.149421 -0.265456
-0.208433 0.152178 -0.268504
0.211910 0.156170 -0.266713
-0.210720 0.157329 -0.266017
0.207482 0.162403 -0.269173
-0.207653 0.162750 -0.267769
0.207289 0.168132 -0.268356
-0.205045 0.169147 -0.268632
0.207733 0.177872 -0.266074
-0.202740 0.178383 -0.268091
0.202619 0.183539 -0.268239
-0.198929 0.184774 -0.268805
0.198275 0.190171 -0.269050
-0.196734 0.192764 -0.266866
0.197063 0.197767 -0.267182
-0.188037 0.199442 -0.268688
0.192109 0.203955 -0.267917
-0.182818 0.204388 -0.268540
-0.177379 0.209136 -0.268065
0.189566 0.211638 -0.265599
0.178342 0.215830 -0.269795
-0.163268 0.215503 -0.269234
0.184321 0.216534 -0.265752
-0.157337 0.219796 -0.268433
-0.169679 0.216738 -0.265339
0.174926 0.222762 -0.266365
-0.151474 0.224156 -0.267687
0.165297 0.228475 -0.266815
-0.141616 0.229670 -0.268080
0.155294 0.233810 -0.266932
-0.131320 0.235137 -0.268494
0.148617 0.237608 -0.265446
0.136181 0.240329 -0.268494
-0.125233 0.239354 -0.267621
0.129775 0.243055 -0.267126
0.119286 0.245429 -0.268029
-0.106140 0.245736 -0.269714
-0.119106 0.243433 -0.266427
0.113306 0.247690 -0.265512
0.105543 0.248767 -0.266799
0.099623 0.249764 -0.267422
0.089602 0.251397 -0.268468
-0.095007 0.250606 -0.267861
-0.108771 0.248451 -0.264900
0.084005 0.253112 -0.266728
0.073999 0.254568 -0.267591
0.058958 0.256370 -0.268494
-0.069536 0.256308 -0.269188
-0.079661 0.254966 -0.267657
-0.090333 0.253168 -0.265920
0.053280 0.257819 -0.266437
0.044211 0.259080 -0.266401
0.038465 0.259897 -0.266473
0.022291 0.261092 -0.267565
-0.001163 0.261041 -0.268754
-0.006924 0.261250 -0.268147
-0.019361 0.261158 -0.268366
-0.028441 0.260510 -0.269647
-0.038817 0.261112 -0.267616
-0.048877 0.259979 -0.268172
-0.063144 0.258912 -0.266575
-0.072719 0.258254 -0.264440
0.017204 0.262255 -0.265083
0.005358 0.262521 -0.265216
-0.011442 0.263119 -0.264333
-0.033522 0.262695 -0.265038
0.167172 -0.418276 -0.263598
-0.181407 -0.418076 -0.261494
0.168471 -0.410124 -0.263823
-0.176084 -0.412235 -0.264951
0.171487 -0.405553 -0.262542
-0.181642 -0.405323 -0.261474
0.175020 -0.401052 -0.261254
-0.181757 -0.399752 -0.261918
0.175859 -0.395301 -0.262061
-0.184357 -0.393540 -0.261208
0.180232 -0.389139 -0.261188
-0.184043 -0.384468 -0.263537
0.181751 -0.380527 -0.262725
-0.189964 -0.379807 -0.260484
0.185970 -0.374456 -0.261913
-0.187241 -0.375666 -0.263619
0.190201 -0.368214 -0.260902
-0.192033 -0.369865 -0.262066
0.187629 -0.363903 -0.263511
-0.193315 -0.364013 -0.263175
0.215474 -0.354522 -0.259560
0.191519 -0.359505 -0.262240
-0.197150 -0.359280 -0.262169
0.195414 -0.354808 -0.260964
-0.200617 -0.354206 -0.261448
0.215948 -0.348519 -0.259218
0.193050 -0.349336 -0.263568
0.196595 -0.344573 -0.262246
-0.206304 -0.342755 -0.261163
0.214954 -0.341239 -0.258100
0.199605 -0.339871 -0.261004
0.215812 -0.335455 -0.258013
0.197205 -0.334147 -0.263705
-0.207797 -0.334306 -0.262868
0.213235 -0.328134 -0.257840
0.202132 -0.328532 -0.261112
-0.212167 -0.329104 -0.261157
0.204488 -0.323131 -0.260800
0.199167 -0.324096 -0.264022
0.212606 -0.322136 -0.258284
0.201525 -0.318812 -0.263445
-0.212791 -0.318414 -0.263777
0.206459 -0.312931 -0.261801
-0.217498 -0.313462 -0.261101
0.211410 -0.307621 -0.260152
0.207042 -0.303113 -0.262940
-0.217896 -0.303593 -0.262731
0.212410 -0.298447 -0.260571
-0.220977 -0.298309 -0.260918
0.209269 -0.292592 -0.262649
-0.218778 -0.293163 -0.263486
0.214923 -0.288166 -0.259468
-0.222019 -0.288441 -0.261234
0.211327 -0.282294 -0.262030
-0.219629 -0.282320 -0.263695
0.212000 -0.275765 -0.261964
-0.223317 -0.273089 -0.260953
0.212140 -0.266586 -0.262429
-0.222521 -0.267678 -0.261601
-0.222074 -0.262007 -0.261959
0.215737 -0.258326 -0.260259
0.211798 -0.252188 -0.263256
0.215661 -0.246293 -0.260703
-0.222057 -0.247722 -0.262030
-0.222679 -0.242081 -0.261499
0.215561 -0.236767 -0.261030
0.213077 -0.230920 -0.262868
-0.219393 -0.231600 -0.264134
0.215839 -0.226484 -0.260994
-0.221966 -0.226520 -0.262015
0.212945 -0.221272 -0.263088
0.216691 -0.216728 -0.260325
-0.222192 -0.216106 -0.261857
0.212177 -0.211200 -0.263568
0.214088 -0.206181 -0.262332
-0.222471 -0.205605 -0.261760
0.213784 -0.195884 -0.263180
-0.223324 -0.195848 -0.261122
0.217836 -0.190580 -0.261106
-0.219369 -0.191080 -0.263950
0.217187 -0.185163 -0.261938
-0.222126 -0.186424 -0.261739
0.217234 -0.178618 -0.262246
-0.222074 -0.175340 -0.261285
0.217690 -0.169128 -0.262149
0.214857 -0.164273 -0.264093
-0.218826 -0.165370 -0.263440
0.220153 -0.162067 -0.260846
0.220158 -0.155839 -0.261260
-0.218298 -0.154808 -0.263665
0.221693 -0.148727 -0.260790
-0.222187 -0.150183 -0.260407
0.221831 -0.143050 -0.261106
-0.221697 -0.143811 -0.260759
-0.221049 -0.137925 -0.261346
0.218478 -0.134458 -0.264134
-0.221344 -0.132329 -0.261214
0.222128 -0.128112 -0.261780
-0.221614 -0.124774 -0.261239
0.219681 -0.117759 -0.263670
-0.222945 -0.114313 -0.260494
0.218825 -0.110418 -0.264175
-0.218839 -0.108243 -0.263828
0.222973 -0.103690 -0.260902
-0.221646 -0.103638 -0.261545
0.222079 -0.093883 -0.261270
-0.221628 -0.093432 -0.261275
0.217756 -0.087628 -0.264374
-0.218714 -0.088675 -0.263414
0.217782 -0.082115 -0.264292
-0.221608 -0.083309 -0.260989
0.221683 -0.078097 -0.261300
0.219144 -0.073247 -0.263251
-0.221461 -0.072941 -0.260810
0.220502 -0.067585 -0.262276
-0.217864 -0.068459 -0.263547
0.218179 -0.062720 -0.264093
-0.220918 -0.061235 -0.260790
0.221584 -0.056865 -0.261637
-0.219237 -0.052780 -0.261872
0.222950 -0.047446 -0.260744
0.221851 -0.042100 -0.261612
-0.217426 -0.041671 -0.263144
0.220485 -0.036684 -0.262695
-0.220093 -0.036755 -0.260974
-0.217622 -0.032130 -0.262976
0.222506 -0.026040 -0.261408
-0.220729 -0.026775 -0.260530
0.219573 -0.020740 -0.263772
-0.217689 -0.022287 -0.263154
-0.218725 -0.015737 -0.262501
0.219846 -0.012929 -0.263777
0.222784 -0.006313 -0.261499
-0.220539 -0.007262 -0.261316
-0.217970 -0.002346 -0.263552
0.222300 0.002483 -0.261561
-0.222552 0.004500 -0.260152
-0.220144 0.009366 -0.262200
0.218538 0.014205 -0.263940
-0.221190 0.014818 -0.261423
0.218075 0.020081 -0.264093
-0.217708 0.018652 -0.264180
0.221397 0.024502 -0.261367
-0.218401 0.024497 -0.263716
-0.222305 0.030761 -0.260571
0.218600 0.034901 -0.263317
0.217782 0.040747 -0.263874
-0.218918 0.039112 -0.263414
0.218703 0.048757 -0.263282
-0.218164 0.048609 -0.264001
0.221414 0.054607 -0.261413
-0.219023 0.054311 -0.263404
0.218677 0.059702 -0.263787
-0.222465 0.060948 -0.261009
0.222385 0.065859 -0.261101
-0.218941 0.065431 -0.263680
0.219165 0.070827 -0.263925
-0.221302 0.071985 -0.262025
0.222362 0.075044 -0.261576
-0.222846 0.081261 -0.260800
0.221689 0.085912 -0.262271
-0.221097 0.089169 -0.262103
0.222677 0.095214 -0.261367
-0.219080 0.096026 -0.263486
0.221907 0.100733 -0.262045
-0.221894 0.100758 -0.261147
0.221671 0.106772 -0.262338
-0.218530 0.106160 -0.263425
-0.221395 0.111183 -0.260918
0.222392 0.116262 -0.261811
-0.217534 0.122506 -0.263282
0.217654 0.125830 -0.265068
-0.215056 0.128831 -0.264859
-0.220143 0.127805 -0.260989
0.218686 0.131344 -0.263996
-0.220454 0.133937 -0.260412
0.219813 0.137046 -0.262787
-0.218318 0.141941 -0.261448
0.220818 0.147068 -0.261066
-0.214551 0.147098 -0.263935
-0.217178 0.151882 -0.261402
0.217122 0.157569 -0.262307
-0.216734 0.157416 -0.261122
0.213609 0.164155 -0.264027
-0.212751 0.162786 -0.263573
-0.210118 0.170087 -0.264302
0.212184 0.173650 -0.263516
-0.215280 0.170592 -0.260024
-0.208327 0.177898 -0.263685
0.210992 0.182161 -0.262516
-0.204507 0.185117 -0.264399
0.207538 0.188965 -0.263077
0.204024 0.194806 -0.263562
-0.202463 0.193213 -0.262378
-0.197739 0.198844 -0.262817
0.201382 0.202806 -0.262061
-0.192708 0.204138 -0.262945
0.196808 0.208462 -0.262445
-0.187422 0.209090 -0.262853
-0.177944 0.214797 -0.263465
0.189624 0.217994 -0.261086
-0.163510 0.220878 -0.264348
0.181091 0.223323 -0.261974
-0.157447 0.225116 -0.263511
-0.169841 0.222078 -0.260417
0.174890 0.227908 -0.260999
-0.147582 0.230440 -0.263823
0.164887 0.232993 -0.261117
-0.141653 0.234815 -0.263037
0.154377 0.237904 -0.260601
0.141993 0.240865 -0.263787
-0.135553 0.239221 -0.262286
0.135540 0.244081 -0.261020
0.125518 0.246027 -0.262924
-0.125360 0.244316 -0.262353
0.119763 0.247833 -0.261637
-0.101797 0.251183 -0.263910
-0.114503 0.249013 -0.261494
0.094248 0.252995 -0.261785
0.085129 0.254828 -0.261586
0.079144 0.255149 -0.263629
0.065792 0.256992 -0.264527
-0.086100 0.255839 -0.263236
-0.107596 0.252270 -0.259601
0.072049 0.257574 -0.260228
0.059665 0.258871 -0.261346
0.048510 0.259964 -0.262491
0.033388 0.261781 -0.263435
-0.053835 0.261510 -0.264302
-0.078965 0.258412 -0.261581
0.027946 0.263063 -0.261117
0.022115 0.263359 -0.261147
-0.002785 0.264084 -0.261668
-0.015987 0.264558 -0.261290
-0.028322 0.264476 -0.261392
-0.039728 0.264201 -0.261270
-0.048537 0.263231 -0.261933
-0.057779 0.263405 -0.259376
0.177960 -0.417816 -0.257313
0.173004 -0.417846 -0.259999
-0.190092 -0.418266 -0.255608
0.177020 -0.412385 -0.258350
-0.184237 -0.411334 -0.259539
-0.191070 -0.412795 -0.254787
0.181851 -0.404253 -0.256813
-0.186972 -0.405393 -0.257783
-0.190127 -0.401032 -0.255930
0.182344 -0.396401 -0.258177
-0.191724 -0.394971 -0.255619
0.186621 -0.390620 -0.257262
0.190915 -0.384558 -0.256323
-0.189294 -0.387249 -0.259060
-0.194521 -0.383708 -0.256027
0.194921 -0.379447 -0.255159
0.191579 -0.375316 -0.258274
-0.194159 -0.376646 -0.258309
0.196198 -0.369895 -0.256752
-0.197709 -0.370375 -0.257670
0.200781 -0.363166 -0.255664
-0.201873 -0.364203 -0.256650
0.205389 -0.358025 -0.254138
0.198061 -0.359051 -0.258330
0.201053 -0.354002 -0.257568
-0.206808 -0.353818 -0.256645
-0.210308 -0.348095 -0.256022
0.201942 -0.344762 -0.258662
0.208283 -0.339519 -0.256578
-0.212719 -0.339284 -0.257328
0.208622 -0.333815 -0.257650
-0.216952 -0.332912 -0.256252
0.207725 -0.328093 -0.258784
-0.220279 -0.328359 -0.255047
-0.217572 -0.324116 -0.258432
0.215740 -0.317715 -0.256731
-0.222341 -0.318919 -0.255746
-0.222728 -0.313477 -0.256629
0.216805 -0.308295 -0.257078
-0.225075 -0.307100 -0.255812
0.220596 -0.304288 -0.254746
0.220414 -0.298243 -0.255169
-0.226638 -0.298427 -0.255894
0.217274 -0.293955 -0.257696
-0.224359 -0.293628 -0.258616
0.220113 -0.285822 -0.255721
-0.227951 -0.287946 -0.256104
-0.225211 -0.282488 -0.258983
0.218497 -0.279068 -0.257073
-0.230324 -0.275428 -0.254695
0.218067 -0.272998 -0.257640
0.217240 -0.266907 -0.258636
-0.228584 -0.267505 -0.256292
0.219680 -0.262134 -0.256956
-0.224618 -0.257315 -0.259733
0.219425 -0.252619 -0.257604
-0.227167 -0.251872 -0.257451
-0.228435 -0.246619 -0.256364
0.222244 -0.241443 -0.255945
-0.231202 -0.240044 -0.253965
-0.225323 -0.236430 -0.259289
0.221943 -0.231360 -0.256660
-0.229835 -0.230344 -0.255409
0.221738 -0.225642 -0.256859
-0.225028 -0.221348 -0.259514
-0.230945 -0.219373 -0.254562
0.221985 -0.216514 -0.256650
-0.228048 -0.211031 -0.257180
0.221233 -0.206447 -0.257477
0.222114 -0.200917 -0.257318
-0.227713 -0.200432 -0.257619
0.223024 -0.195440 -0.257242
-0.230640 -0.195766 -0.255083
0.225208 -0.189743 -0.256252
-0.227652 -0.190988 -0.257548
-0.227892 -0.185505 -0.257160
0.223386 -0.181763 -0.258029
-0.228446 -0.180007 -0.256451
0.227116 -0.175105 -0.255797
0.224052 -0.170991 -0.258029
-0.224938 -0.170256 -0.258810
0.226841 -0.165089 -0.256502
-0.227483 -0.165406 -0.256553
0.227164 -0.158683 -0.256614
-0.223227 -0.160122 -0.259779
0.224574 -0.153970 -0.258554
-0.227035 -0.153255 -0.256497
0.229800 -0.150933 -0.255164
0.230297 -0.145215 -0.255073
-0.227390 -0.145250 -0.256006
0.227017 -0.134234 -0.257927
-0.226376 -0.135694 -0.256885
0.226985 -0.128516 -0.258151
-0.226845 -0.129323 -0.256670
0.224961 -0.121700 -0.259708
-0.227134 -0.123742 -0.256639
0.230768 -0.120573 -0.255277
-0.224829 -0.119193 -0.258784
0.227210 -0.113639 -0.257855
-0.228424 -0.113246 -0.255812
0.227196 -0.107626 -0.257778
0.229700 -0.102413 -0.255751
-0.227159 -0.105451 -0.256946
0.229920 -0.096379 -0.255420
0.224874 -0.098549 -0.259381
-0.224583 -0.098896 -0.259034
-0.227760 -0.094460 -0.256170
0.228007 -0.089615 -0.256685
-0.224370 -0.088297 -0.258886
0.227309 -0.084116 -0.257094
0.228364 -0.077980 -0.256257
-0.224445 -0.077975 -0.258493
0.225258 -0.071955 -0.258656
-0.226986 -0.072890 -0.256124
0.230482 -0.069280 -0.254863
-0.224134 -0.067800 -0.258401
0.226854 -0.063669 -0.257676
-0.226760 -0.062812 -0.255940
0.227686 -0.058023 -0.257201
-0.225918 -0.056834 -0.256440
0.226851 -0.051795 -0.257891
-0.225821 -0.051260 -0.256374
0.228229 -0.044066 -0.257002
-0.224727 -0.042535 -0.257170
0.231465 -0.038461 -0.254797
0.227401 -0.031364 -0.257752
-0.223603 -0.032237 -0.258069
0.227789 -0.025499 -0.257558
-0.227032 -0.027744 -0.255129
-0.223368 -0.022231 -0.258381
0.227389 -0.017034 -0.257988
-0.226376 -0.017111 -0.255920
0.227621 -0.010892 -0.257860
0.230571 -0.006221 -0.255593
-0.226943 -0.006390 -0.256012
0.226204 -0.001126 -0.258758
-0.224558 -0.001233 -0.258279
0.230257 0.006042 -0.255374
-0.227148 0.003841 -0.256308
0.224555 0.008696 -0.259514
0.227468 0.014154 -0.257033
-0.227372 0.013756 -0.256292
0.230199 0.019310 -0.254720
-0.224361 0.019382 -0.258840
-0.227434 0.023976 -0.256333
0.224110 0.029775 -0.259208
-0.227182 0.029510 -0.256543
0.227506 0.034038 -0.256660
0.226166 0.039460 -0.257655
-0.223350 0.039353 -0.259779
0.230769 0.045980 -0.254271
-0.224832 0.045464 -0.258692
0.227484 0.050431 -0.256711
-0.224605 0.051957 -0.259090
0.227918 0.056215 -0.256395
0.225071 0.061255 -0.258743
-0.227703 0.059717 -0.256731
0.229833 0.062919 -0.255047
0.226486 0.070138 -0.258024
-0.227446 0.069847 -0.256997
0.230652 0.076166 -0.254695
0.227486 0.080051 -0.257420
-0.228427 0.080598 -0.256078
0.227725 0.085876 -0.257155
0.230114 0.090951 -0.255027
-0.226644 0.090947 -0.257584
0.227174 0.095648 -0.257487
-0.228516 0.096572 -0.255848
0.228332 0.100958 -0.256543
-0.224585 0.106068 -0.258743
0.226660 0.111019 -0.258376
-0.227109 0.110713 -0.256338
0.230493 0.116661 -0.255721
-0.224055 0.116058 -0.258503
0.227640 0.120909 -0.257911
0.227845 0.127616 -0.257737
-0.227016 0.125539 -0.255537
0.227982 0.133390 -0.257436
-0.226530 0.131379 -0.255659
-0.226139 0.137117 -0.255624
0.227590 0.142381 -0.256981
-0.225227 0.143249 -0.255904
-0.220025 0.147180 -0.259667
-0.225438 0.149196 -0.255210
0.222837 0.152576 -0.258764
0.225399 0.158278 -0.255991
-0.223375 0.157472 -0.255930
0.221895 0.162413 -0.257814
-0.219198 0.162531 -0.258442
0.222500 0.168106 -0.256507
-0.221289 0.167575 -0.255838
0.218968 0.172874 -0.258360
0.220859 0.178398 -0.255762
-0.214104 0.179307 -0.258468
-0.220184 0.175488 -0.254715
0.217028 0.183227 -0.257441
-0.209970 0.185413 -0.259693
0.213753 0.188363 -0.258345
-0.215427 0.185877 -0.254827
0.209161 0.195383 -0.259376
-0.207930 0.193539 -0.257665
-0.203388 0.199258 -0.258212
0.207082 0.203434 -0.257359
-0.198513 0.204736 -0.258422
0.202540 0.209004 -0.257911
-0.193314 0.209866 -0.258396
0.197634 0.214353 -0.258115
-0.187891 0.214690 -0.258151
-0.178168 0.220199 -0.258560
0.190614 0.222864 -0.255915
-0.163596 0.226233 -0.259448
0.180663 0.228475 -0.256395
-0.157513 0.230430 -0.258641
-0.169879 0.227331 -0.255445
0.170351 0.233447 -0.256343
-0.147674 0.235708 -0.258820
-0.163676 0.231461 -0.254531
0.160315 0.237613 -0.256563
0.147394 0.241207 -0.259111
-0.141639 0.240063 -0.257886
-0.153634 0.236781 -0.254761
0.140326 0.244413 -0.256869
-0.131344 0.245107 -0.258008
0.128875 0.247992 -0.255762
0.114077 0.250325 -0.257809
0.106166 0.251479 -0.258973
-0.120649 0.249692 -0.257420
0.099356 0.253500 -0.257446
-0.096010 0.255915 -0.258488
-0.113502 0.253081 -0.255466
0.077597 0.258198 -0.255777
0.063310 0.259821 -0.257114
0.052281 0.260892 -0.258320
0.040315 0.262368 -0.259570
-0.070755 0.261622 -0.258315
-0.083734 0.259596 -0.256986
0.046616 0.262787 -0.255246
0.034951 0.264063 -0.256246
0.012816 0.264676 -0.258008
0.006349 0.265252 -0.257124
-0.008866 0.265982 -0.256971
-0.024148 0.266069 -0.257604
-0.032392 0.266008 -0.257538
-0.063826 0.263578 -0.256777
0.188376 -0.418076 -0.252188
0.182979 -0.417986 -0.254807
-0.197000 -0.418596 -0.250600
0.193570 -0.417826 -0.249687
0.186446 -0.411104 -0.253526
-0.195405 -0.410214 -0.251647
0.188008 -0.405083 -0.253346
-0.196708 -0.404753 -0.250759
0.191752 -0.400412 -0.251953
-0.197146 -0.398932 -0.250902
0.195385 -0.396051 -0.250718
0.196180 -0.390290 -0.251585
-0.196780 -0.390050 -0.252780
0.200528 -0.383578 -0.250646
-0.201475 -0.384958 -0.250264
0.213055 -0.376136 -0.246485
-0.201764 -0.379317 -0.251488
0.201688 -0.375146 -0.252142
0.212366 -0.369435 -0.248343
0.205328 -0.370455 -0.251371
-0.203021 -0.370655 -0.253285
0.206453 -0.364764 -0.252121
-0.207930 -0.363823 -0.251887
0.210914 -0.361348 -0.250539
0.211548 -0.354910 -0.251192
0.216301 -0.354635 -0.248410
-0.212280 -0.354374 -0.252055
0.211868 -0.347983 -0.252172
-0.216699 -0.348182 -0.250912
0.215995 -0.339141 -0.253040
-0.218389 -0.339958 -0.252652
-0.222190 -0.333606 -0.251754
0.217465 -0.329941 -0.253587
-0.225444 -0.327200 -0.250942
0.218949 -0.324203 -0.253336
0.221725 -0.318567 -0.251871
-0.227667 -0.318118 -0.251259
-0.230880 -0.310837 -0.249768
0.225540 -0.308402 -0.250095
0.227017 -0.302271 -0.249539
-0.231621 -0.301051 -0.250871
0.223283 -0.292771 -0.253086
-0.229917 -0.292959 -0.253720
-0.232813 -0.287135 -0.251693
0.225533 -0.282304 -0.251422
0.225413 -0.276633 -0.251585
-0.235530 -0.272584 -0.249738
0.224151 -0.268505 -0.252943
-0.232910 -0.267433 -0.252218
0.226213 -0.261711 -0.251631
-0.230640 -0.262058 -0.254281
0.223744 -0.257009 -0.253837
-0.233970 -0.257336 -0.251075
0.227524 -0.251255 -0.251080
0.225072 -0.246150 -0.253392
-0.232987 -0.246660 -0.252081
0.229863 -0.244414 -0.249641
0.227511 -0.236894 -0.252218
-0.235619 -0.236501 -0.249911
0.229932 -0.230563 -0.250973
-0.234278 -0.226960 -0.251468
0.227865 -0.222502 -0.252800
0.231917 -0.215519 -0.250529
-0.235949 -0.218393 -0.250121
0.228151 -0.211909 -0.252918
-0.232625 -0.211148 -0.253295
0.227852 -0.206003 -0.253372
-0.236135 -0.206217 -0.250146
0.231420 -0.199886 -0.251412
-0.233660 -0.201321 -0.252453
-0.236996 -0.194592 -0.249233
0.229565 -0.191616 -0.253147
-0.233548 -0.190197 -0.252397
0.228380 -0.184479 -0.254389
-0.233244 -0.184673 -0.252509
0.232293 -0.179910 -0.251887
-0.235730 -0.180278 -0.250090
0.232438 -0.174023 -0.252178
-0.232324 -0.174963 -0.252918
-0.234794 -0.169072 -0.250524
0.232119 -0.165911 -0.252882
0.236445 -0.159596 -0.249671
-0.233573 -0.159989 -0.251254
0.233481 -0.154389 -0.252249
-0.232320 -0.150060 -0.251978
0.235903 -0.144531 -0.250651
-0.232329 -0.144546 -0.251841
0.233651 -0.139599 -0.252734
0.236433 -0.134984 -0.250600
-0.233702 -0.134519 -0.250697
0.233451 -0.129997 -0.253132
-0.232510 -0.128481 -0.251825
0.236165 -0.124228 -0.250932
0.236053 -0.117693 -0.251044
-0.232635 -0.119081 -0.251825
0.233703 -0.109085 -0.252780
-0.232635 -0.109085 -0.251749
0.236168 -0.104562 -0.250748
-0.232368 -0.103414 -0.251948
0.236074 -0.099034 -0.250667
0.235334 -0.092458 -0.251049
-0.232462 -0.093377 -0.251703
0.233786 -0.084044 -0.252065
-0.230050 -0.083141 -0.253674
0.236510 -0.079149 -0.250085
-0.230197 -0.076867 -0.253326
0.235970 -0.073054 -0.250697
0.235471 -0.067049 -0.251315
-0.231653 -0.069158 -0.251718
0.234235 -0.058585 -0.252525
-0.232478 -0.059949 -0.250769
0.233014 -0.051841 -0.253536
-0.232548 -0.053168 -0.250565
0.233121 -0.045306 -0.253541
-0.229144 -0.046940 -0.253459
-0.231246 -0.041079 -0.251514
0.236159 -0.036071 -0.251443
-0.231749 -0.031247 -0.250983
0.233663 -0.027367 -0.253357
-0.231707 -0.025284 -0.251060
0.235480 -0.022149 -0.252081
0.236922 -0.016621 -0.251029
-0.231683 -0.016636 -0.251432
-0.229412 -0.011678 -0.253628
0.237181 -0.006481 -0.250646
-0.233645 -0.006267 -0.250508
0.233448 -0.001203 -0.253265
0.236100 0.003254 -0.251044
-0.231508 0.004407 -0.252642
0.233261 0.014675 -0.252678
-0.233406 0.014231 -0.251279
0.235918 0.019101 -0.250478
-0.230341 0.018529 -0.253904
-0.235489 0.021663 -0.249651
0.234450 0.024344 -0.251437
0.235550 0.029816 -0.250539
0.230082 0.026759 -0.254649
-0.233864 0.029055 -0.251167
0.232625 0.034115 -0.252826
-0.229560 0.034891 -0.254649
0.233763 0.040737 -0.251984
-0.230127 0.041334 -0.254235
-0.235725 0.037096 -0.249610
-0.236057 0.043493 -0.249284
0.235643 0.049706 -0.250519
-0.230407 0.048400 -0.254128
0.232146 0.054071 -0.253188
-0.230275 0.054969 -0.254363
-0.235449 0.052744 -0.249779
0.235182 0.059508 -0.250845
-0.233193 0.060182 -0.251774
0.235750 0.065017 -0.250396
0.233182 0.070102 -0.252530
-0.233112 0.070163 -0.251841
0.237143 0.074865 -0.249119
-0.230359 0.075258 -0.254348
0.233097 0.081072 -0.252596
-0.233444 0.080082 -0.251463
0.235471 0.086346 -0.250575
-0.230362 0.086050 -0.254281
0.235761 0.092467 -0.250355
-0.232807 0.090496 -0.251958
-0.232895 0.096195 -0.251764
0.235302 0.100284 -0.250947
-0.232654 0.101693 -0.251810
0.232949 0.105782 -0.253086
-0.229329 0.104955 -0.254797
0.233883 0.111989 -0.252851
-0.232139 0.111489 -0.251754
-0.232356 0.117019 -0.251213
0.233461 0.121802 -0.253914
0.236775 0.126514 -0.251397
-0.232245 0.126601 -0.250804
-0.231739 0.132594 -0.250963
0.233340 0.137229 -0.253536
-0.232324 0.138256 -0.250080
0.232343 0.143147 -0.253720
0.234993 0.148359 -0.251080
0.229907 0.149737 -0.254470
-0.230621 0.145735 -0.251080
0.235288 0.154051 -0.249983
-0.228019 0.157763 -0.251978
0.231971 0.161035 -0.250937
-0.225462 0.164328 -0.253071
0.227508 0.167692 -0.252810
-0.225667 0.171444 -0.251197
0.226999 0.177923 -0.250876
-0.221863 0.182186 -0.250856
0.221819 0.187648 -0.251994
0.217790 0.193852 -0.252642
-0.213286 0.193883 -0.252810
0.213550 0.199794 -0.253526
-0.208812 0.199615 -0.253443
-0.204069 0.205139 -0.253822
0.211302 0.207615 -0.251269
-0.199015 0.210341 -0.253878
0.206607 0.213139 -0.251723
-0.193698 0.215309 -0.253679
0.201475 0.218356 -0.251739
-0.188121 0.220047 -0.253249
0.195906 0.223226 -0.251325
-0.178138 0.225442 -0.253521
0.186118 0.228950 -0.251744
-0.184072 0.226407 -0.249355
0.175824 0.233841 -0.251585
-0.169875 0.232365 -0.250355
0.164920 0.238359 -0.251320
0.156225 0.240997 -0.252570
-0.147615 0.241023 -0.253654
-0.159612 0.237695 -0.250575
0.150189 0.243295 -0.252009
-0.137127 0.245878 -0.253413
-0.153529 0.241927 -0.249534
0.135063 0.248073 -0.251437
0.120396 0.250978 -0.252683
-0.126482 0.250218 -0.253004
0.113464 0.253107 -0.250611
0.105124 0.254547 -0.251387
0.094780 0.256150 -0.252866
0.086404 0.257130 -0.254511
-0.106350 0.256074 -0.253397
-0.119415 0.253638 -0.251141
0.072990 0.259841 -0.252999
0.067320 0.260617 -0.253045
0.058534 0.261714 -0.253137
-0.076361 0.262184 -0.254583
-0.090103 0.260423 -0.252244
-0.099671 0.258488 -0.251764
0.053414 0.263012 -0.251116
0.039071 0.264620 -0.252443
0.027253 0.265844 -0.251483
0.021091 0.265901 -0.252484
-0.003452 0.266749 -0.253945
-0.013444 0.267025 -0.254016
-0.038418 0.266836 -0.254516
-0.048859 0.266646 -0.253613
-0.054296 0.266652 -0.252463
-0.069271 0.264788 -0.251284
-0.083184 0.263272 -0.248884
0.004923 0.267422 -0.250182
-0.007416 0.268311 -0.248491
-0.018680 0.267948 -0.250952
-0.024601 0.268091 -0.250866
-0.033562 0.267892 -0.251514
-0.043639 0.268035 -0.250110
0.203738 -0.417836 -0.246986
0.210665 -0.417776 -0.245235
-0.202285 -0.417966 -0.246429
0.197387 -0.411334 -0.248047
-0.200778 -0.411855 -0.247481
0.200756 -0.405793 -0.246511
-0.202342 -0.405713 -0.246276
0.202143 -0.399932 -0.246236
-0.202254 -0.400082 -0.246751
-0.204738 -0.393730 -0.245684
0.201893 -0.390470 -0.248129
0.211360 -0.382758 -0.245347
-0.207301 -0.385098 -0.245393
0.206583 -0.379237 -0.248578
-0.208369 -0.379587 -0.245995
-0.208398 -0.371425 -0.248660
0.217384 -0.364364 -0.245955
-0.213072 -0.365164 -0.247205
-0.217029 -0.358979 -0.246302
-0.221097 -0.352767 -0.245261
0.222982 -0.348519 -0.244826
0.218762 -0.344379 -0.248578
-0.222971 -0.344516 -0.247027
0.221658 -0.338957 -0.247562
-0.226898 -0.338232 -0.245924
0.225107 -0.333719 -0.245797
0.226225 -0.327720 -0.245995
-0.231593 -0.326628 -0.245490
0.233484 -0.315529 -0.242718
0.226581 -0.318654 -0.247481
-0.232784 -0.317995 -0.246557
0.227415 -0.313166 -0.247710
0.233695 -0.309112 -0.243565
-0.236359 -0.308325 -0.245092
0.232183 -0.298723 -0.245771
-0.236719 -0.299524 -0.246302
0.229033 -0.293046 -0.248507
-0.234833 -0.294960 -0.248793
0.234019 -0.289477 -0.244724
0.228377 -0.287390 -0.249145
-0.238673 -0.288094 -0.245965
0.232105 -0.283995 -0.246337
-0.241377 -0.281069 -0.243810
0.231590 -0.276689 -0.246904
-0.235364 -0.280181 -0.249722
0.232127 -0.270297 -0.246736
-0.240377 -0.272528 -0.244980
-0.237194 -0.267056 -0.248068
0.232429 -0.261660 -0.246838
-0.241642 -0.262670 -0.243626
0.236178 -0.256176 -0.244218
0.229623 -0.256901 -0.249176
0.232013 -0.251867 -0.247552
-0.235937 -0.250826 -0.249187
-0.241128 -0.253854 -0.244101
0.236549 -0.241668 -0.244959
-0.237369 -0.242091 -0.247996
0.233135 -0.237634 -0.247879
-0.241497 -0.235761 -0.244127
0.236873 -0.231109 -0.245945
-0.238612 -0.231565 -0.247185
0.240690 -0.227741 -0.243402
-0.241196 -0.224167 -0.244892
0.234627 -0.223733 -0.248338
0.237591 -0.216575 -0.246700
-0.240558 -0.214610 -0.245761
0.234809 -0.208616 -0.248808
0.240867 -0.207258 -0.244331
-0.241418 -0.203940 -0.244867
0.238602 -0.201091 -0.246230
0.240232 -0.195792 -0.245082
0.234641 -0.195251 -0.249381
-0.241328 -0.197253 -0.244892
0.237758 -0.190120 -0.247231
-0.241422 -0.191534 -0.244754
-0.238504 -0.186363 -0.247629
0.238171 -0.180426 -0.247272
0.238664 -0.174641 -0.247134
-0.238293 -0.175663 -0.247568
-0.241146 -0.170235 -0.244708
0.238480 -0.164967 -0.247726
-0.238492 -0.164977 -0.247068
0.240631 -0.159142 -0.246031
-0.240804 -0.160051 -0.244739
-0.238286 -0.154752 -0.246863
0.238458 -0.150698 -0.248221
0.241450 -0.144801 -0.245756
-0.237979 -0.144122 -0.246822
0.241903 -0.133917 -0.245684
-0.237879 -0.134928 -0.246925
0.239059 -0.129476 -0.248379
-0.238466 -0.129363 -0.246337
0.242777 -0.124412 -0.245154
-0.237349 -0.120266 -0.247185
0.239543 -0.113277 -0.248149
-0.237598 -0.114604 -0.246720
0.241224 -0.105241 -0.246644
-0.237690 -0.103654 -0.246399
0.242101 -0.098977 -0.245847
-0.234936 -0.098503 -0.249258
-0.236806 -0.093274 -0.247307
0.238108 -0.087363 -0.248828
-0.235107 -0.088297 -0.248951
0.240621 -0.082835 -0.246925
-0.237645 -0.083034 -0.246363
0.242099 -0.077418 -0.245899
-0.237753 -0.077015 -0.246154
0.243225 -0.071996 -0.245179
-0.234267 -0.073809 -0.249391
0.241706 -0.066855 -0.246598
-0.237450 -0.066809 -0.246317
-0.238140 -0.060974 -0.245643
0.240501 -0.058539 -0.247955
-0.237857 -0.055461 -0.245832
0.243324 -0.052663 -0.245904
0.245766 -0.046307 -0.244080
0.239204 -0.048957 -0.249150
-0.234514 -0.047190 -0.248680
0.239785 -0.043111 -0.248736
0.242642 -0.037281 -0.246593
-0.234931 -0.038410 -0.248160
0.240248 -0.031599 -0.248410
-0.237507 -0.032768 -0.245919
0.242717 -0.026882 -0.246526
0.243028 -0.020781 -0.246292
-0.237217 -0.022864 -0.246577
-0.238344 -0.016539 -0.246093
0.242786 -0.011392 -0.246419
-0.235993 -0.010867 -0.248359
-0.240553 -0.006568 -0.244877
0.239410 -0.001412 -0.248706
-0.237272 -0.001856 -0.247726
0.241471 0.004612 -0.246812
-0.241588 0.002223 -0.243984
0.241334 0.010151 -0.246669
-0.235344 0.008461 -0.249518
-0.239869 0.013341 -0.245511
0.243319 0.019453 -0.244708
-0.241351 0.023420 -0.244167
0.241250 0.029336 -0.245873
-0.240364 0.030474 -0.245317
0.239015 0.035555 -0.247649
-0.240896 0.036862 -0.244914
0.238719 0.042462 -0.247925
-0.241866 0.046148 -0.243963
0.242403 0.049941 -0.244826
0.240517 0.055163 -0.246480
-0.239803 0.054765 -0.245756
0.241801 0.061693 -0.245373
-0.238034 0.059886 -0.247323
0.241405 0.067809 -0.245587
-0.241093 0.065293 -0.244438
-0.238136 0.070719 -0.247180
-0.240453 0.076835 -0.245036
0.241208 0.079842 -0.245689
-0.240435 0.083100 -0.245041
0.241802 0.088378 -0.245511
-0.238107 0.090747 -0.247068
0.241529 0.095791 -0.245995
-0.238779 0.096174 -0.246307
0.241120 0.102244 -0.246598
-0.238298 0.105812 -0.246266
0.239669 0.111325 -0.248303
-0.237640 0.111275 -0.246552
0.242606 0.117565 -0.246307
-0.237456 0.116840 -0.246389
0.239693 0.121695 -0.248905
-0.234778 0.122037 -0.248665
0.242624 0.126065 -0.246603
-0.236703 0.127759 -0.246485
0.242582 0.131609 -0.246516
-0.237034 0.137071 -0.245623
0.239197 0.140987 -0.248624
-0.235913 0.148144 -0.245822
0.241249 0.149186 -0.245735
-0.233344 0.157773 -0.247068
0.237227 0.161852 -0.246715
-0.230742 0.164252 -0.248303
0.233411 0.168520 -0.247945
-0.230973 0.171378 -0.246205
0.232019 0.177040 -0.246506
-0.227866 0.177934 -0.247001
0.227295 0.187516 -0.247164
-0.222988 0.188429 -0.247037
0.223154 0.194005 -0.247874
-0.218635 0.194204 -0.247940
0.218837 0.199952 -0.248573
-0.214156 0.199952 -0.248594
-0.209494 0.205537 -0.249094
0.216455 0.207702 -0.246215
-0.204578 0.210800 -0.249325
0.211818 0.213302 -0.246695
-0.199388 0.215784 -0.249155
-0.210114 0.211265 -0.244647
0.206741 0.218642 -0.246736
-0.193898 0.220587 -0.248747
-0.204996 0.216315 -0.244611
0.201180 0.223573 -0.246337
0.195214 0.227989 -0.245577
-0.177966 0.230420 -0.248308
-0.189856 0.226989 -0.244882
0.185106 0.233060 -0.245735
0.170435 0.238609 -0.246292
-0.165626 0.238425 -0.246149
0.160042 0.242509 -0.245991
0.146045 0.246282 -0.247879
-0.147215 0.245853 -0.248063
-0.159364 0.242642 -0.245204
0.140117 0.248364 -0.246965
0.130705 0.250826 -0.247078
-0.132050 0.250769 -0.248308
-0.140408 0.249252 -0.246312
0.123639 0.252989 -0.245485
-0.112257 0.256711 -0.249135
-0.125138 0.254016 -0.246572
0.098267 0.258084 -0.245434
0.090273 0.259172 -0.246445
0.084121 0.260086 -0.246848
0.078697 0.261066 -0.246618
-0.095426 0.261408 -0.247466
-0.105421 0.259688 -0.246246
-0.118143 0.257181 -0.244509
0.072469 0.262782 -0.244091
0.063795 0.263053 -0.246562
0.049137 0.264630 -0.247343
0.042602 0.265630 -0.246644
0.036689 0.266043 -0.247629
0.013252 0.266973 -0.250008
-0.061166 0.266963 -0.249258
-0.073890 0.265298 -0.247802
-0.089322 0.263251 -0.246057
0.021830 0.267989 -0.243912
-0.002464 0.268739 -0.245939
-0.017167 0.269265 -0.245337
-0.029200 0.268852 -0.247685
-0.038560 0.269107 -0.246445
-0.049611 0.269459 -0.244463
-0.055383 0.268882 -0.245429
-0.067135 0.267530 -0.244739
-0.209816 -0.418286 -0.240748
0.216961 -0.417556 -0.241666
0.211542 -0.409294 -0.241764
0.205337 -0.411605 -0.244836
-0.208784 -0.411725 -0.241105
0.207830 -0.405453 -0.243111
-0.207171 -0.405553 -0.242345
0.212811 -0.399762 -0.240527
-0.210252 -0.400672 -0.239905
0.209538 -0.395171 -0.243080
-0.211169 -0.395011 -0.239823
0.215878 -0.389249 -0.240875
-0.212029 -0.384548 -0.241375
0.218429 -0.379987 -0.241549
-0.213356 -0.375966 -0.242825
0.222806 -0.369025 -0.240292
-0.217323 -0.369365 -0.241723
-0.221258 -0.363104 -0.240558
0.221756 -0.360552 -0.243208
0.226287 -0.353731 -0.241135
-0.227368 -0.348601 -0.241135
0.231858 -0.344466 -0.239072
-0.231283 -0.342530 -0.239940
0.228546 -0.339646 -0.242248
0.231617 -0.334404 -0.240691
-0.233043 -0.333815 -0.241687
0.232655 -0.328118 -0.240743
-0.236642 -0.328231 -0.240078
0.229576 -0.323432 -0.244045
-0.237874 -0.318526 -0.241559
-0.241258 -0.311139 -0.239930
0.238369 -0.305248 -0.240359
-0.241623 -0.301597 -0.241370
0.236957 -0.293403 -0.242197
-0.240355 -0.293337 -0.243790
-0.242994 -0.287579 -0.241794
0.237621 -0.282877 -0.241906
0.238283 -0.277204 -0.241472
-0.246748 -0.276291 -0.238475
0.238297 -0.267964 -0.241840
-0.243789 -0.267316 -0.241503
0.241547 -0.255809 -0.240241
0.239315 -0.246992 -0.242529
-0.243412 -0.246563 -0.241845
0.243558 -0.242117 -0.239741
-0.243928 -0.240968 -0.241447
0.245092 -0.231386 -0.239231
-0.246072 -0.232014 -0.239588
0.243309 -0.222017 -0.241610
-0.246103 -0.223953 -0.239853
0.245259 -0.215014 -0.240241
-0.245947 -0.217708 -0.240144
-0.244719 -0.211633 -0.241477
0.245721 -0.206207 -0.240134
0.244508 -0.200831 -0.241360
-0.246034 -0.201225 -0.240063
0.246044 -0.194853 -0.240053
0.243122 -0.190677 -0.242692
-0.246057 -0.192034 -0.240012
0.245600 -0.184245 -0.240466
-0.242878 -0.186113 -0.243264
-0.246515 -0.178470 -0.239512
0.243129 -0.175857 -0.242963
0.246329 -0.171323 -0.240144
-0.246665 -0.168918 -0.239195
0.243678 -0.165503 -0.242932
-0.243448 -0.165207 -0.242320
0.246304 -0.160898 -0.240773
0.244442 -0.154139 -0.242749
-0.243656 -0.155517 -0.241717
-0.243381 -0.149769 -0.241779
0.246659 -0.145010 -0.240926
-0.243173 -0.144071 -0.241830
0.244098 -0.139538 -0.243473
0.246578 -0.133407 -0.241258
-0.243272 -0.134872 -0.241559
-0.242607 -0.129063 -0.242085
0.247350 -0.118673 -0.240712
-0.242403 -0.118816 -0.241764
0.244216 -0.114287 -0.243902
-0.243479 -0.113430 -0.240318
0.246223 -0.108412 -0.242034
-0.241748 -0.103506 -0.242090
0.247632 -0.098809 -0.240773
0.244875 -0.093259 -0.243499
-0.243710 -0.093254 -0.240211
0.246743 -0.087705 -0.241779
-0.242352 -0.082049 -0.241692
0.247676 -0.078174 -0.241125
0.247622 -0.072666 -0.241324
-0.239856 -0.071378 -0.244076
0.247005 -0.063701 -0.242080
-0.242782 -0.062700 -0.241248
0.247916 -0.057309 -0.241427
-0.241600 -0.053194 -0.242294
0.250675 -0.040997 -0.239813
-0.239401 -0.043377 -0.244188
0.247990 -0.036847 -0.242345
-0.239977 -0.037383 -0.243703
0.250545 -0.031165 -0.240236
-0.243015 -0.031497 -0.241360
0.247952 -0.026586 -0.242355
0.250168 -0.020848 -0.240420
-0.243842 -0.022083 -0.241192
-0.245776 -0.016703 -0.239756
0.247758 -0.011489 -0.242309
-0.242627 -0.012000 -0.242805
0.250376 -0.006185 -0.239945
0.245064 -0.004123 -0.244346
-0.246050 -0.004506 -0.239700
0.249689 -0.000238 -0.240420
-0.245962 0.001110 -0.239716
0.248177 0.007915 -0.241421
-0.243959 0.007711 -0.241544
0.247499 0.014644 -0.241672
-0.246343 0.014792 -0.238879
-0.243630 0.018754 -0.241743
0.247762 0.023313 -0.240824
-0.246579 0.023256 -0.238685
0.246675 0.028800 -0.241284
0.246784 0.034743 -0.240845
-0.246101 0.034497 -0.239593
0.244388 0.039894 -0.242922
-0.246134 0.044811 -0.239762
0.247696 0.048640 -0.240175
-0.246130 0.055163 -0.239746
0.247125 0.060075 -0.240860
-0.245951 0.061265 -0.239894
0.246133 0.069233 -0.241605
-0.243982 0.069857 -0.241748
0.246434 0.075386 -0.241355
0.246166 0.081567 -0.241758
-0.246279 0.078240 -0.239649
-0.245760 0.084814 -0.240098
0.248096 0.091962 -0.240702
-0.243485 0.090793 -0.242136
-0.246740 0.094478 -0.238817
0.246348 0.100952 -0.242437
-0.243166 0.101305 -0.241922
0.244976 0.109197 -0.243856
-0.242785 0.111035 -0.241620
0.247665 0.116559 -0.241865
0.250362 0.123971 -0.239466
-0.243117 0.120474 -0.240630
0.247704 0.131430 -0.241855
-0.240359 0.132778 -0.242616
0.244767 0.138797 -0.243871
-0.241051 0.141584 -0.241386
0.246700 0.148987 -0.240568
-0.241457 0.152224 -0.239905
0.243737 0.156716 -0.242065
-0.238751 0.157293 -0.241865
-0.235371 0.164931 -0.243667
0.241995 0.166283 -0.241135
0.237916 0.173252 -0.242264
-0.236319 0.171383 -0.240901
0.236843 0.178730 -0.241131
-0.232962 0.177898 -0.241942
-0.229205 0.184529 -0.242958
0.232663 0.187552 -0.241855
0.228538 0.194030 -0.242912
-0.223961 0.194418 -0.243034
0.224152 0.200034 -0.243652
-0.219518 0.200217 -0.243728
-0.214930 0.205874 -0.244269
0.221543 0.207661 -0.241135
-0.220323 0.206078 -0.239379
0.216849 0.213241 -0.241549
-0.215631 0.211602 -0.239818
0.211859 0.218637 -0.241590
-0.199580 0.221067 -0.244172
-0.210573 0.216815 -0.239940
0.206377 0.223675 -0.241212
-0.205167 0.221608 -0.239583
0.200435 0.228159 -0.240456
-0.183756 0.231216 -0.243974
-0.195597 0.227407 -0.240236
0.190356 0.233248 -0.240783
0.178576 0.236547 -0.244157
-0.177727 0.235152 -0.242810
-0.189461 0.231732 -0.239425
0.184163 0.236695 -0.239272
-0.171560 0.239160 -0.241636
0.165339 0.242662 -0.241238
0.155930 0.245582 -0.241845
-0.153055 0.246512 -0.244030
-0.165207 0.243290 -0.240583
0.149978 0.247752 -0.240987
0.135758 0.251142 -0.242641
-0.146734 0.250223 -0.241585
-0.158682 0.247201 -0.239501
0.129839 0.253163 -0.241207
0.114990 0.255941 -0.242141
0.106818 0.256864 -0.244147
-0.130764 0.254532 -0.241911
-0.139144 0.253117 -0.240093
0.094271 0.259938 -0.241845
-0.109835 0.260127 -0.242708
-0.123944 0.257538 -0.239925
0.077956 0.263109 -0.240318
0.058589 0.264966 -0.241585
0.052495 0.265701 -0.241391
0.046590 0.266151 -0.242437
0.029697 0.267392 -0.244300
-0.079519 0.266477 -0.241952
-0.095383 0.263976 -0.241105
-0.103092 0.262797 -0.240027
0.036441 0.267729 -0.239986
0.014927 0.268892 -0.241314
0.008665 0.268984 -0.242422
0.002633 0.269388 -0.241865
-0.007890 0.269934 -0.241513
-0.022432 0.270133 -0.241820
-0.032694 0.269908 -0.242958
-0.044335 0.270454 -0.240839
-0.059922 0.269388 -0.241911
-0.073163 0.268025 -0.240236
0.222326 -0.417066 -0.236694
-0.214211 -0.417846 -0.235968
0.217869 -0.409744 -0.237965
-0.213762 -0.411715 -0.236300
-0.212641 -0.405553 -0.237342
0.220953 -0.399812 -0.235504
0.224636 -0.394891 -0.233416
-0.215439 -0.394911 -0.235769
0.222106 -0.389199 -0.236551
-0.218039 -0.384998 -0.235606
0.225136 -0.379997 -0.235927
0.226090 -0.374166 -0.236280
-0.218205 -0.376586 -0.238077
-0.222423 -0.369675 -0.236510
0.227571 -0.365244 -0.237062
0.232432 -0.358806 -0.234769
-0.227350 -0.358974 -0.236249
-0.231496 -0.352746 -0.234978
0.234657 -0.349713 -0.235438
0.236488 -0.344317 -0.235111
0.236915 -0.338267 -0.235938
-0.237102 -0.338431 -0.235713
0.237066 -0.328486 -0.237291
-0.242276 -0.327184 -0.234611
0.235891 -0.322299 -0.239190
0.241595 -0.317587 -0.235570
-0.242835 -0.318613 -0.236648
0.242115 -0.310883 -0.236259
-0.247312 -0.306942 -0.234743
0.241928 -0.302016 -0.237541
0.245115 -0.297814 -0.234636
-0.247673 -0.298146 -0.235876
0.243859 -0.288237 -0.236137
-0.247825 -0.288380 -0.236781
-0.248379 -0.282821 -0.236561
0.242851 -0.278133 -0.237414
-0.250714 -0.278364 -0.234269
0.245930 -0.272845 -0.234927
0.242485 -0.268485 -0.238292
-0.248353 -0.267990 -0.236806
0.243546 -0.263099 -0.237929
-0.246068 -0.260209 -0.239088
-0.250706 -0.263594 -0.234325
0.246955 -0.255767 -0.235978
0.244772 -0.250678 -0.238363
-0.248562 -0.252296 -0.236464
0.247291 -0.245920 -0.236623
-0.250838 -0.247247 -0.234100
-0.247926 -0.241570 -0.237276
0.247045 -0.236664 -0.237245
-0.251046 -0.231784 -0.234361
0.247427 -0.226260 -0.237546
-0.251628 -0.225499 -0.233947
0.250621 -0.221374 -0.234983
-0.250853 -0.219894 -0.234901
0.249316 -0.212869 -0.236551
-0.249126 -0.211353 -0.236816
0.251635 -0.207626 -0.234422
-0.251725 -0.207156 -0.233932
0.251231 -0.202138 -0.234963
0.252683 -0.195715 -0.233712
-0.251230 -0.195955 -0.234432
0.248558 -0.190095 -0.237802
-0.251136 -0.188758 -0.234570
0.248735 -0.180589 -0.237720
-0.251538 -0.181875 -0.234121
0.252450 -0.175381 -0.234549
0.251994 -0.169720 -0.235152
-0.251655 -0.171094 -0.233876
0.249142 -0.165253 -0.237985
-0.250643 -0.164160 -0.234845
0.252497 -0.159061 -0.235157
-0.250998 -0.157855 -0.234345
0.249895 -0.153961 -0.237735
-0.248776 -0.149559 -0.236413
0.251950 -0.145445 -0.235642
0.252301 -0.139645 -0.235264
-0.248264 -0.140130 -0.236582
0.249195 -0.127704 -0.238680
-0.248075 -0.129037 -0.236183
-0.245335 -0.124131 -0.238879
0.252050 -0.119081 -0.235586
-0.247639 -0.119382 -0.236050
0.252194 -0.109315 -0.235489
-0.247079 -0.109923 -0.236264
0.251924 -0.103577 -0.235948
-0.248298 -0.103863 -0.234830
-0.247443 -0.098503 -0.235938
0.251657 -0.094138 -0.236597
0.252795 -0.087873 -0.235672
-0.247943 -0.088118 -0.235672
0.253149 -0.082059 -0.235657
-0.247249 -0.079649 -0.236551
0.253082 -0.072416 -0.236126
-0.248337 -0.072997 -0.235458
0.250253 -0.067917 -0.238889
-0.245670 -0.069000 -0.238286
0.253282 -0.062832 -0.235820
-0.246990 -0.063327 -0.236980
0.252667 -0.057360 -0.236500
-0.247520 -0.057850 -0.236490
-0.247837 -0.052194 -0.236290
0.250519 -0.049732 -0.239302
-0.245391 -0.047415 -0.238705
0.256281 -0.041426 -0.233937
-0.246100 -0.041324 -0.238266
0.253724 -0.036750 -0.237118
-0.251933 -0.037077 -0.233146
0.255716 -0.031482 -0.235330
-0.248224 -0.031946 -0.236812
0.256386 -0.023033 -0.234759
-0.250755 -0.022185 -0.234723
-0.250767 -0.016028 -0.234856
0.253449 -0.011627 -0.237332
0.257399 -0.006063 -0.233376
-0.252146 -0.005552 -0.233437
0.255794 -0.000075 -0.234907
0.253174 0.004479 -0.237306
-0.250445 0.002453 -0.235039
0.256147 0.009554 -0.234412
-0.248650 0.009973 -0.236561
0.253131 0.014935 -0.236873
-0.250697 0.021540 -0.234524
0.252695 0.024206 -0.236372
0.252735 0.029704 -0.235815
-0.249425 0.029055 -0.235999
0.251541 0.035351 -0.236567
0.249711 0.040629 -0.238159
-0.248502 0.039348 -0.237271
0.252490 0.050513 -0.235779
-0.248756 0.049385 -0.237143
-0.251800 0.053969 -0.234054
0.252026 0.058661 -0.236337
-0.251549 0.059917 -0.234386
-0.248706 0.065767 -0.237276
0.252403 0.069989 -0.235953
-0.250733 0.071434 -0.235335
0.252580 0.080404 -0.236218
-0.251271 0.081190 -0.234769
0.250545 0.086443 -0.238399
-0.251780 0.086837 -0.234044
0.255845 0.092518 -0.234126
-0.251676 0.094841 -0.233748
0.252304 0.102024 -0.237439
-0.248333 0.101111 -0.236786
0.255042 0.107109 -0.234958
-0.247910 0.106818 -0.236827
0.250779 0.110141 -0.238889
0.253054 0.116676 -0.236791
-0.247773 0.116692 -0.236239
-0.244787 0.126550 -0.238562
0.252252 0.132027 -0.237281
-0.246864 0.132772 -0.236132
0.249706 0.138976 -0.239093
-0.247043 0.142268 -0.235371
0.253162 0.147185 -0.234810
-0.244471 0.147262 -0.237490
-0.247051 0.153326 -0.234177
0.247983 0.157569 -0.237924
-0.243186 0.157385 -0.237429
-0.240251 0.164772 -0.238863
0.247330 0.166671 -0.236249
0.243417 0.173022 -0.237322
-0.242299 0.171215 -0.234794
-0.238158 0.177561 -0.236704
0.241603 0.181359 -0.235504
-0.234228 0.184442 -0.237888
0.237549 0.187643 -0.236766
-0.230257 0.190533 -0.239057
0.233623 0.194005 -0.237746
0.229360 0.199988 -0.238578
-0.228060 0.198467 -0.236893
0.226630 0.207534 -0.235897
-0.225578 0.206200 -0.234396
0.221819 0.213067 -0.236275
-0.220971 0.211781 -0.234876
0.216816 0.218438 -0.236300
-0.216072 0.217157 -0.235101
0.211443 0.223502 -0.235978
-0.210722 0.222103 -0.234922
0.205595 0.228087 -0.235300
-0.201271 0.227912 -0.235606
0.195542 0.233335 -0.235647
-0.183366 0.235816 -0.238363
-0.195224 0.232221 -0.234789
0.189353 0.236730 -0.234519
0.177310 0.240119 -0.237429
-0.177283 0.239787 -0.237138
0.170692 0.242887 -0.236337
0.161106 0.245807 -0.237041
-0.170965 0.243815 -0.235917
0.155166 0.247982 -0.236275
0.145632 0.250606 -0.236561
-0.164519 0.247660 -0.234753
0.139017 0.252908 -0.235101
0.125162 0.255839 -0.236664
-0.145574 0.253577 -0.235938
-0.153496 0.252244 -0.233988
0.118476 0.257722 -0.235080
0.110654 0.258876 -0.235933
0.104451 0.259821 -0.236480
0.098252 0.260678 -0.237220
0.090428 0.261653 -0.238297
-0.115636 0.261081 -0.236704
-0.130137 0.257661 -0.235927
0.084292 0.263201 -0.236372
0.068714 0.265120 -0.236760
0.062650 0.265798 -0.236459
-0.085365 0.266498 -0.239067
-0.108699 0.263297 -0.235284
0.047375 0.267897 -0.233962
0.028927 0.268841 -0.237194
0.018397 0.269622 -0.236516
0.007615 0.270102 -0.236878
-0.003847 0.270888 -0.236244
-0.015226 0.271114 -0.237577
-0.027142 0.270924 -0.238256
-0.034132 0.271257 -0.236561
-0.040596 0.271277 -0.236812
-0.048927 0.271476 -0.236234
-0.058409 0.270868 -0.236638
-0.064101 0.270260 -0.236699
-0.079894 0.268183 -0.236388
-0.088081 0.267846 -0.233666
-0.218459 -0.418146 -0.232105
0.227604 -0.416526 -0.231639
0.223377 -0.409564 -0.233620
-0.218079 -0.411915 -0.232074
0.226151 -0.404563 -0.230833
-0.217370 -0.405383 -0.232712
-0.220093 -0.400642 -0.230384
-0.221592 -0.394531 -0.229745
0.228188 -0.391210 -0.230960
0.231020 -0.384198 -0.229812
-0.221960 -0.385268 -0.231557
0.233254 -0.374226 -0.230016
-0.224294 -0.375586 -0.232181
-0.227372 -0.369465 -0.231420
0.233273 -0.363973 -0.232610
-0.231320 -0.363196 -0.230133
0.237040 -0.358719 -0.230674
-0.237282 -0.348861 -0.230700
0.242884 -0.338687 -0.230236
-0.241905 -0.338334 -0.230532
0.245253 -0.333310 -0.229082
0.241855 -0.330258 -0.233059
-0.247200 -0.327475 -0.228995
0.246201 -0.323284 -0.230333
-0.247211 -0.319414 -0.231670
0.247254 -0.315402 -0.230715
-0.248505 -0.314038 -0.231746
0.248100 -0.309342 -0.230634
-0.252494 -0.307243 -0.228954
0.247238 -0.302531 -0.232197
-0.252436 -0.297641 -0.230914
0.248785 -0.291709 -0.231144
-0.250561 -0.292673 -0.233605
-0.253028 -0.286644 -0.231460
0.248207 -0.283091 -0.232059
0.248975 -0.277220 -0.231659
-0.253056 -0.273202 -0.231833
0.248965 -0.268515 -0.232584
0.249631 -0.262874 -0.232666
0.252481 -0.257795 -0.230608
-0.252992 -0.257499 -0.231894
0.253274 -0.252301 -0.230593
0.255977 -0.245705 -0.228679
0.252130 -0.243331 -0.232605
-0.253226 -0.242556 -0.231649
0.252566 -0.237619 -0.232528
-0.253537 -0.236767 -0.231491
0.252144 -0.231876 -0.233171
0.255883 -0.226545 -0.230042
-0.255941 -0.221563 -0.229118
0.254110 -0.215422 -0.231803
-0.254133 -0.215947 -0.231180
0.255693 -0.210123 -0.230016
0.256532 -0.201541 -0.229082
-0.253544 -0.200978 -0.231787
0.254326 -0.190335 -0.232217
0.253578 -0.184372 -0.233161
0.256319 -0.180405 -0.230429
0.256888 -0.171757 -0.230016
0.254483 -0.164788 -0.232870
0.256233 -0.159693 -0.231016
0.253980 -0.150683 -0.233524
-0.253773 -0.149396 -0.231251
0.257570 -0.143255 -0.229307
-0.251179 -0.145169 -0.233850
0.254514 -0.134688 -0.232886
-0.252771 -0.135734 -0.231415
0.256539 -0.129803 -0.230455
0.254294 -0.124356 -0.233028
-0.250410 -0.124350 -0.233268
0.256489 -0.119101 -0.230475
-0.252267 -0.119520 -0.230624
0.254232 -0.114104 -0.233079
-0.252584 -0.113226 -0.229853
0.256691 -0.109203 -0.230368
-0.252319 -0.106881 -0.229980
0.256884 -0.099228 -0.230470
-0.252177 -0.098457 -0.230292
0.256947 -0.093514 -0.230720
0.256954 -0.087659 -0.231103
-0.252160 -0.088277 -0.230792
-0.253023 -0.081860 -0.230128
0.256871 -0.077536 -0.231848
-0.252670 -0.075927 -0.230771
0.257484 -0.068260 -0.231292
-0.252750 -0.067876 -0.230960
0.257731 -0.062526 -0.230930
-0.252871 -0.057033 -0.231267
0.257270 -0.052418 -0.231634
0.257709 -0.046782 -0.231603
