ply
format ascii 1.0
element vertex 1621
property float x
property float y
property float z
end_header
-0.318536 -0.211997 -0.126225
-0.309736 -0.238397 -0.152625
-0.309736 -0.238397 -0.143825
-0.309736 -0.229597 -0.152625
-0.309736 -0.229597 -0.143825
-0.300936 -0.238397 -0.152625
-0.309736 -0.238397 -0.135025
-0.309736 -0.229597 -0.135025
-0.309736 -0.220797 -0.152625
-0.309736 -0.220797 -0.143825
-0.309736 -0.211997 -0.152625
-0.309736 -0.211997 -0.143825
-0.300936 -0.220797 -0.152625
-0.309736 -0.220797 -0.135025
-0.309736 -0.211997 -0.135025
-0.300936 -0.203197 -0.170225
-0.300936 -0.203197 -0.161425
-0.300936 -0.194397 -0.170225
-0.300936 -0.194397 -0.161425
-0.300936 -0.185597 -0.170225
-0.300936 -0.185597 -0.161425
-0.300936 -0.176797 -0.170225
-0.300936 -0.176797 -0.161425
-0.318536 -0.203197 -0.126225
-0.318536 -0.194397 -0.126225
-0.318536 -0.185597 -0.126225
-0.318536 -0.176797 -0.135025
-0.318536 -0.176797 -0.126225
-0.309736 -0.203197 -0.152625
-0.309736 -0.203197 -0.143825
-0.309736 -0.194397 -0.152625
-0.309736 -0.194397 -0.143825
-0.309736 -0.203197 -0.135025
-0.309736 -0.194397 -0.135025
-0.309736 -0.185597 -0.152625
-0.309736 -0.185597 -0.143825
-0.309736 -0.176797 -0.152625
-0.309736 -0.176797 -0.143825
-0.309736 -0.185597 -0.135025
-0.292136 -0.238397 -0.179025
-0.292136 -0.229597 -0.187825
-0.292136 -0.229597 -0.179025
-0.283336 -0.238397 -0.187825
-0.283336 -0.229597 -0.187825
-0.292136 -0.238397 -0.170225
-0.292136 -0.229597 -0.170225
-0.292136 -0.220797 -0.179025
-0.292136 -0.211997 -0.187825
-0.292136 -0.211997 -0.179025
-0.283336 -0.220797 -0.187825
-0.292136 -0.203197 -0.179025
-0.292136 -0.194397 -0.179025
-0.283336 -0.203197 -0.187825
-0.283336 -0.194397 -0.187825
-0.292136 -0.185597 -0.179025
-0.292136 -0.176797 -0.187825
-0.292136 -0.176797 -0.179025
-0.283336 -0.185597 -0.187825
-0.283336 -0.176797 -0.187825
-0.327336 -0.238397 -0.108625
-0.327336 -0.229597 -0.108625
-0.318536 -0.238397 -0.117425
-0.318536 -0.229597 -0.117425
-0.318536 -0.229597 -0.108625
-0.327336 -0.238397 -0.099825
-0.327336 -0.238397 -0.091025
-0.327336 -0.229597 -0.099825
-0.327336 -0.229597 -0.091025
-0.318536 -0.220797 -0.117425
-0.318536 -0.220797 -0.108625
-0.318536 -0.211997 -0.117425
-0.318536 -0.211997 -0.108625
-0.327336 -0.220797 -0.099825
-0.327336 -0.220797 -0.091025
-0.327336 -0.211997 -0.099825
-0.327336 -0.211997 -0.091025
-0.327336 -0.238397 -0.082225
-0.327336 -0.229597 -0.082225
-0.327336 -0.220797 -0.082225
-0.327336 -0.211997 -0.082225
-0.318536 -0.203197 -0.117425
-0.318536 -0.203197 -0.108625
-0.318536 -0.194397 -0.117425
-0.318536 -0.194397 -0.108625
-0.327336 -0.203197 -0.099825
-0.327336 -0.203197 -0.091025
-0.327336 -0.194397 -0.099825
-0.327336 -0.194397 -0.091025
-0.318536 -0.185597 -0.117425
-0.318536 -0.176797 -0.117425
-0.318536 -0.176797 -0.108625
-0.327336 -0.185597 -0.099825
-0.327336 -0.185597 -0.091025
-0.327336 -0.176797 -0.099825
-0.327336 -0.176797 -0.091025
-0.327336 -0.194397 -0.082225
-0.327336 -0.176797 -0.082225
-0.248136 -0.414397 -0.196625
-0.248136 -0.405597 -0.196625
-0.256936 -0.387997 -0.196625
-0.248136 -0.396797 -0.205425
-0.248136 -0.396797 -0.196625
-0.248136 -0.387997 -0.205425
-0.248136 -0.387997 -0.196625
-0.239336 -0.414397 -0.214225
-0.239336 -0.405597 -0.214225
-0.230536 -0.414397 -0.223025
-0.230536 -0.414397 -0.214225
-0.230536 -0.405597 -0.214225
-0.239336 -0.414397 -0.205425
-0.239336 -0.405597 -0.205425
-0.239336 -0.396797 -0.214225
-0.239336 -0.387997 -0.214225
-0.230536 -0.396797 -0.223025
-0.230536 -0.387997 -0.223025
-0.239336 -0.396797 -0.205425
-0.239336 -0.387997 -0.205425
-0.221736 -0.414397 -0.231825
-0.221736 -0.405597 -0.231825
-0.212936 -0.414397 -0.240625
-0.212936 -0.414397 -0.231825
-0.212936 -0.405597 -0.240625
-0.221736 -0.396797 -0.231825
-0.221736 -0.387997 -0.231825
-0.212936 -0.396797 -0.240625
-0.212936 -0.396797 -0.231825
-0.212936 -0.387997 -0.240625
-0.204136 -0.414397 -0.249425
-0.204136 -0.405597 -0.249425
-0.195336 -0.414397 -0.258225
-0.195336 -0.414397 -0.249425
-0.195336 -0.405597 -0.249425
-0.204136 -0.405597 -0.240625
-0.204136 -0.396797 -0.249425
-0.204136 -0.387997 -0.249425
-0.195336 -0.396797 -0.258225
-0.195336 -0.396797 -0.249425
-0.195336 -0.387997 -0.258225
-0.195336 -0.387997 -0.249425
-0.221736 -0.414397 -0.223025
-0.221736 -0.405597 -0.223025
-0.195336 -0.361597 -0.267025
-0.195336 -0.352797 -0.267025
-0.212936 -0.317597 -0.267025
-0.204136 -0.343997 -0.267025
-0.204136 -0.335197 -0.267025
-0.195336 -0.343997 -0.267025
-0.195336 -0.335197 -0.275825
-0.204136 -0.326397 -0.267025
-0.204136 -0.317597 -0.275825
-0.204136 -0.317597 -0.267025
-0.195336 -0.326397 -0.275825
-0.195336 -0.317597 -0.275825
-0.230536 -0.379197 -0.231825
-0.230536 -0.370397 -0.231825
-0.239336 -0.352797 -0.231825
-0.230536 -0.361597 -0.240625
-0.230536 -0.361597 -0.231825
-0.230536 -0.352797 -0.240625
-0.230536 -0.352797 -0.231825
-0.248136 -0.370397 -0.214225
-0.256936 -0.379197 -0.196625
-0.256936 -0.370397 -0.196625
-0.248136 -0.379197 -0.205425
-0.248136 -0.370397 -0.205425
-0.248136 -0.361597 -0.214225
-0.256936 -0.361597 -0.196625
-0.256936 -0.352797 -0.205425
-0.248136 -0.361597 -0.205425
-0.239336 -0.379197 -0.214225
-0.239336 -0.370397 -0.223025
-0.239336 -0.370397 -0.214225
-0.230536 -0.379197 -0.223025
-0.230536 -0.370397 -0.223025
-0.239336 -0.361597 -0.223025
-0.239336 -0.352797 -0.223025
-0.248136 -0.326397 -0.231825
-0.248136 -0.317597 -0.231825
-0.230536 -0.335197 -0.249425
-0.239336 -0.335197 -0.231825
-0.230536 -0.343997 -0.240625
-0.230536 -0.335197 -0.240625
-0.230536 -0.326397 -0.249425
-0.230536 -0.317597 -0.249425
-0.239336 -0.326397 -0.240625
-0.239336 -0.326397 -0.231825
-0.239336 -0.317597 -0.240625
-0.256936 -0.335197 -0.214225
-0.248136 -0.343997 -0.223025
-0.248136 -0.343997 -0.214225
-0.248136 -0.335197 -0.223025
-0.256936 -0.343997 -0.205425
-0.256936 -0.326397 -0.223025
-0.256936 -0.326397 -0.214225
-0.256936 -0.317597 -0.223025
-0.221736 -0.379197 -0.240625
-0.221736 -0.379197 -0.231825
-0.221736 -0.370397 -0.240625
-0.212936 -0.379197 -0.240625
-0.212936 -0.370397 -0.240625
-0.221736 -0.352797 -0.249425
-0.212936 -0.361597 -0.249425
-0.212936 -0.352797 -0.249425
-0.221736 -0.361597 -0.240625
-0.204136 -0.379197 -0.249425
-0.204136 -0.370397 -0.249425
-0.195336 -0.379197 -0.258225
-0.195336 -0.370397 -0.258225
-0.204136 -0.361597 -0.258225
-0.204136 -0.361597 -0.249425
-0.204136 -0.352797 -0.258225
-0.195336 -0.361597 -0.258225
-0.221736 -0.343997 -0.249425
-0.221736 -0.335197 -0.249425
-0.212936 -0.343997 -0.258225
-0.212936 -0.343997 -0.249425
-0.212936 -0.335197 -0.258225
-0.221736 -0.326397 -0.258225
-0.221736 -0.326397 -0.249425
-0.221736 -0.317597 -0.258225
-0.212936 -0.326397 -0.258225
-0.204136 -0.343997 -0.258225
-0.177736 -0.414397 -0.267025
-0.177736 -0.405597 -0.267025
-0.186536 -0.387997 -0.267025
-0.177736 -0.396797 -0.267025
-0.177736 -0.387997 -0.267025
-0.168936 -0.414397 -0.267025
-0.168936 -0.405597 -0.267025
-0.160136 -0.414397 -0.275825
-0.160136 -0.405597 -0.275825
-0.168936 -0.396797 -0.267025
-0.168936 -0.387997 -0.275825
-0.160136 -0.396797 -0.275825
-0.160136 -0.387997 -0.275825
-0.151336 -0.414397 -0.284625
-0.142536 -0.414397 -0.284625
-0.142536 -0.405597 -0.284625
-0.151336 -0.414397 -0.275825
-0.151336 -0.405597 -0.275825
-0.151336 -0.396797 -0.284625
-0.151336 -0.387997 -0.284625
-0.142536 -0.396797 -0.284625
-0.142536 -0.387997 -0.284625
-0.133736 -0.414397 -0.284625
-0.124936 -0.414397 -0.293425
-0.124936 -0.405597 -0.293425
-0.133736 -0.396797 -0.284625
-0.133736 -0.387997 -0.293425
-0.124936 -0.396797 -0.293425
-0.124936 -0.387997 -0.293425
-0.186536 -0.414397 -0.258225
-0.186536 -0.405597 -0.258225
-0.177736 -0.414397 -0.258225
-0.177736 -0.405597 -0.258225
-0.186536 -0.396797 -0.258225
-0.186536 -0.387997 -0.258225
-0.177736 -0.396797 -0.258225
-0.186536 -0.379197 -0.267025
-0.186536 -0.370397 -0.267025
-0.177736 -0.379197 -0.267025
-0.177736 -0.370397 -0.275825
-0.186536 -0.361597 -0.267025
-0.186536 -0.352797 -0.275825
-0.177736 -0.361597 -0.275825
-0.177736 -0.361597 -0.267025
-0.177736 -0.352797 -0.275825
-0.160136 -0.379197 -0.284625
-0.160136 -0.370397 -0.284625
-0.168936 -0.379197 -0.275825
-0.168936 -0.370397 -0.275825
-0.160136 -0.379197 -0.275825
-0.168936 -0.361597 -0.284625
-0.168936 -0.352797 -0.284625
-0.160136 -0.361597 -0.284625
-0.160136 -0.352797 -0.284625
-0.168936 -0.361597 -0.275825
-0.160136 -0.326397 -0.302225
-0.160136 -0.317597 -0.302225
-0.177736 -0.343997 -0.284625
-0.177736 -0.335197 -0.284625
-0.186536 -0.343997 -0.275825
-0.186536 -0.343997 -0.267025
-0.186536 -0.335197 -0.275825
-0.186536 -0.326397 -0.284625
-0.186536 -0.317597 -0.284625
-0.177736 -0.326397 -0.284625
-0.168936 -0.343997 -0.284625
-0.168936 -0.335197 -0.293425
-0.168936 -0.335197 -0.284625
-0.160136 -0.343997 -0.293425
-0.160136 -0.335197 -0.293425
-0.168936 -0.326397 -0.293425
-0.168936 -0.317597 -0.293425
-0.160136 -0.326397 -0.293425
-0.142536 -0.352797 -0.302225
-0.133736 -0.370397 -0.302225
-0.124936 -0.379197 -0.302225
-0.133736 -0.361597 -0.302225
-0.133736 -0.352797 -0.302225
-0.124936 -0.361597 -0.302225
-0.124936 -0.352797 -0.302225
-0.151336 -0.379197 -0.284625
-0.151336 -0.370397 -0.293425
-0.151336 -0.370397 -0.284625
-0.142536 -0.379197 -0.293425
-0.142536 -0.370397 -0.293425
-0.151336 -0.361597 -0.293425
-0.151336 -0.352797 -0.293425
-0.142536 -0.361597 -0.293425
-0.142536 -0.352797 -0.293425
-0.133736 -0.379197 -0.293425
-0.133736 -0.370397 -0.293425
-0.151336 -0.335197 -0.302225
-0.142536 -0.335197 -0.302225
-0.151336 -0.326397 -0.302225
-0.151336 -0.317597 -0.302225
-0.142536 -0.326397 -0.302225
-0.142536 -0.317597 -0.311025
-0.133736 -0.343997 -0.302225
-0.133736 -0.335197 -0.311025
-0.124936 -0.343997 -0.311025
-0.124936 -0.335197 -0.311025
-0.133736 -0.326397 -0.311025
-0.133736 -0.317597 -0.311025
-0.124936 -0.326397 -0.311025
-0.124936 -0.317597 -0.311025
-0.151336 -0.343997 -0.293425
-0.186536 -0.379197 -0.258225
-0.256936 -0.414397 -0.187825
-0.256936 -0.414397 -0.179025
-0.256936 -0.405597 -0.179025
-0.256936 -0.396797 -0.187825
-0.256936 -0.396797 -0.179025
-0.256936 -0.387997 -0.187825
-0.256936 -0.379197 -0.187825
-0.177736 -0.414397 -0.064625
-0.177736 -0.414397 -0.055825
-0.160136 -0.414397 -0.073425
-0.168936 -0.414397 -0.064625
-0.168936 -0.414397 -0.055825
-0.168936 -0.405597 -0.055825
-0.160136 -0.414397 -0.064625
-0.160136 -0.414397 -0.055825
-0.160136 -0.405597 -0.055825
-0.151336 -0.414397 -0.073425
-0.142536 -0.414397 -0.073425
-0.151336 -0.414397 -0.064625
-0.151336 -0.405597 -0.055825
-0.142536 -0.414397 -0.064625
-0.142536 -0.405597 -0.064625
-0.151336 -0.396797 -0.055825
-0.142536 -0.396797 -0.055825
-0.142536 -0.387997 -0.055825
-0.133736 -0.414397 -0.073425
-0.124936 -0.414397 -0.073425
-0.133736 -0.414397 -0.064625
-0.133736 -0.405597 -0.064625
-0.124936 -0.414397 -0.064625
-0.124936 -0.405597 -0.064625
-0.133736 -0.396797 -0.064625
-0.133736 -0.387997 -0.055825
-0.124936 -0.396797 -0.064625
-0.124936 -0.387997 -0.055825
-0.221736 -0.299997 -0.267025
-0.212936 -0.299997 -0.267025
-0.221736 -0.291197 -0.267025
-0.221736 -0.282397 -0.267025
-0.212936 -0.291197 -0.267025
-0.212936 -0.282397 -0.267025
-0.195336 -0.308797 -0.284625
-0.195336 -0.299997 -0.284625
-0.204136 -0.308797 -0.275825
-0.204136 -0.299997 -0.275825
-0.204136 -0.299997 -0.267025
-0.195336 -0.308797 -0.275825
-0.195336 -0.299997 -0.275825
-0.195336 -0.291197 -0.284625
-0.195336 -0.282397 -0.284625
-0.204136 -0.291197 -0.275825
-0.204136 -0.282397 -0.275825
-0.212936 -0.273597 -0.267025
-0.212936 -0.264797 -0.267025
-0.221736 -0.255997 -0.267025
-0.212936 -0.255997 -0.267025
-0.212936 -0.247197 -0.267025
-0.195336 -0.273597 -0.284625
-0.195336 -0.264797 -0.284625
-0.204136 -0.273597 -0.275825
-0.204136 -0.264797 -0.275825
-0.195336 -0.255997 -0.284625
-0.195336 -0.247197 -0.284625
-0.204136 -0.255997 -0.275825
-0.204136 -0.247197 -0.275825
-0.248136 -0.308797 -0.231825
-0.248136 -0.299997 -0.231825
-0.256936 -0.282397 -0.231825
-0.248136 -0.291197 -0.240625
-0.248136 -0.291197 -0.231825
-0.248136 -0.282397 -0.240625
-0.248136 -0.282397 -0.231825
-0.239336 -0.308797 -0.249425
-0.239336 -0.299997 -0.249425
-0.230536 -0.308797 -0.249425
-0.230536 -0.299997 -0.258225
-0.230536 -0.299997 -0.249425
-0.239336 -0.308797 -0.240625
-0.239336 -0.299997 -0.240625
-0.239336 -0.291197 -0.249425
-0.239336 -0.282397 -0.249425
-0.230536 -0.291197 -0.258225
-0.230536 -0.291197 -0.249425
-0.239336 -0.291197 -0.240625
-0.239336 -0.282397 -0.240625
-0.256936 -0.308797 -0.223025
-0.256936 -0.299997 -0.223025
-0.256936 -0.291197 -0.223025
-0.256936 -0.282397 -0.223025
-0.256936 -0.273597 -0.231825
-0.256936 -0.264797 -0.231825
-0.248136 -0.273597 -0.240625
-0.248136 -0.264797 -0.240625
-0.248136 -0.264797 -0.231825
-0.256936 -0.255997 -0.231825
-0.256936 -0.247197 -0.231825
-0.248136 -0.255997 -0.240625
-0.248136 -0.247197 -0.231825
-0.239336 -0.273597 -0.249425
-0.239336 -0.264797 -0.249425
-0.230536 -0.273597 -0.258225
-0.230536 -0.264797 -0.258225
-0.230536 -0.264797 -0.249425
-0.239336 -0.273597 -0.240625
-0.239336 -0.264797 -0.240625
-0.239336 -0.247197 -0.249425
-0.230536 -0.255997 -0.258225
-0.230536 -0.255997 -0.249425
-0.230536 -0.247197 -0.258225
-0.230536 -0.247197 -0.249425
-0.239336 -0.255997 -0.240625
-0.239336 -0.247197 -0.240625
-0.256936 -0.273597 -0.223025
-0.256936 -0.255997 -0.223025
-0.256936 -0.247197 -0.223025
-0.221736 -0.308797 -0.258225
-0.221736 -0.299997 -0.258225
-0.221736 -0.291197 -0.258225
-0.221736 -0.282397 -0.258225
-0.221736 -0.273597 -0.258225
-0.221736 -0.264797 -0.258225
-0.221736 -0.255997 -0.258225
-0.221736 -0.247197 -0.258225
-0.221736 -0.229597 -0.267025
-0.212936 -0.238397 -0.267025
-0.212936 -0.229597 -0.267025
-0.212936 -0.220797 -0.267025
-0.212936 -0.211997 -0.267025
-0.195336 -0.238397 -0.284625
-0.195336 -0.229597 -0.284625
-0.204136 -0.238397 -0.275825
-0.204136 -0.229597 -0.275825
-0.195336 -0.238397 -0.275825
-0.195336 -0.220797 -0.284625
-0.195336 -0.211997 -0.284625
-0.204136 -0.220797 -0.275825
-0.204136 -0.211997 -0.275825
-0.195336 -0.220797 -0.275825
-0.221736 -0.194397 -0.267025
-0.212936 -0.203197 -0.267025
-0.212936 -0.194397 -0.267025
-0.212936 -0.185597 -0.267025
-0.212936 -0.176797 -0.267025
-0.195336 -0.203197 -0.284625
-0.195336 -0.194397 -0.284625
-0.204136 -0.203197 -0.275825
-0.204136 -0.194397 -0.275825
-0.195336 -0.185597 -0.284625
-0.195336 -0.176797 -0.284625
-0.204136 -0.185597 -0.275825
-0.204136 -0.176797 -0.275825
-0.195336 -0.185597 -0.275825
-0.256936 -0.238397 -0.231825
-0.256936 -0.229597 -0.231825
-0.248136 -0.238397 -0.240625
-0.248136 -0.229597 -0.240625
-0.248136 -0.229597 -0.231825
-0.256936 -0.220797 -0.231825
-0.256936 -0.211997 -0.231825
-0.248136 -0.220797 -0.240625
-0.248136 -0.220797 -0.231825
-0.248136 -0.211997 -0.240625
-0.239336 -0.238397 -0.249425
-0.239336 -0.229597 -0.249425
-0.230536 -0.238397 -0.258225
-0.230536 -0.229597 -0.258225
-0.230536 -0.229597 -0.249425
-0.239336 -0.238397 -0.240625
-0.239336 -0.220797 -0.249425
-0.239336 -0.211997 -0.249425
-0.230536 -0.220797 -0.258225
-0.230536 -0.211997 -0.258225
-0.230536 -0.211997 -0.249425
-0.239336 -0.220797 -0.240625
-0.256936 -0.238397 -0.223025
-0.256936 -0.229597 -0.223025
-0.256936 -0.211997 -0.223025
-0.256936 -0.203197 -0.231825
-0.256936 -0.194397 -0.231825
-0.248136 -0.203197 -0.240625
-0.248136 -0.203197 -0.231825
-0.248136 -0.194397 -0.240625
-0.248136 -0.194397 -0.231825
-0.256936 -0.185597 -0.231825
-0.256936 -0.176797 -0.231825
-0.248136 -0.185597 -0.231825
-0.248136 -0.176797 -0.240625
-0.239336 -0.203197 -0.249425
-0.239336 -0.194397 -0.249425
-0.230536 -0.203197 -0.258225
-0.230536 -0.203197 -0.249425
-0.230536 -0.194397 -0.258225
-0.230536 -0.194397 -0.249425
-0.239336 -0.203197 -0.240625
-0.239336 -0.194397 -0.240625
-0.239336 -0.185597 -0.249425
-0.239336 -0.176797 -0.249425
-0.230536 -0.185597 -0.258225
-0.230536 -0.185597 -0.249425
-0.230536 -0.176797 -0.258225
-0.230536 -0.176797 -0.249425
-0.239336 -0.185597 -0.240625
-0.256936 -0.203197 -0.223025
-0.256936 -0.194397 -0.223025
-0.256936 -0.185597 -0.223025
-0.256936 -0.176797 -0.223025
-0.221736 -0.238397 -0.258225
-0.221736 -0.229597 -0.258225
-0.221736 -0.220797 -0.258225
-0.221736 -0.211997 -0.258225
-0.221736 -0.203197 -0.258225
-0.221736 -0.194397 -0.258225
-0.221736 -0.185597 -0.258225
-0.221736 -0.176797 -0.258225
-0.168936 -0.308797 -0.302225
-0.168936 -0.299997 -0.302225
-0.160136 -0.308797 -0.302225
-0.160136 -0.299997 -0.302225
-0.168936 -0.291197 -0.302225
-0.168936 -0.282397 -0.302225
-0.160136 -0.291197 -0.302225
-0.160136 -0.282397 -0.302225
-0.186536 -0.308797 -0.284625
-0.186536 -0.299997 -0.293425
-0.186536 -0.299997 -0.284625
-0.177736 -0.308797 -0.293425
-0.177736 -0.299997 -0.293425
-0.186536 -0.291197 -0.293425
-0.186536 -0.291197 -0.284625
-0.186536 -0.282397 -0.293425
-0.186536 -0.282397 -0.284625
-0.177736 -0.291197 -0.293425
-0.177736 -0.282397 -0.293425
-0.168936 -0.308797 -0.293425
-0.168936 -0.299997 -0.293425
-0.168936 -0.291197 -0.293425
-0.168936 -0.273597 -0.302225
-0.168936 -0.264797 -0.302225
-0.160136 -0.273597 -0.311025
-0.160136 -0.273597 -0.302225
-0.160136 -0.264797 -0.302225
-0.168936 -0.255997 -0.302225
-0.168936 -0.247197 -0.302225
-0.160136 -0.255997 -0.302225
-0.160136 -0.247197 -0.311025
-0.186536 -0.273597 -0.293425
-0.186536 -0.273597 -0.284625
-0.186536 -0.264797 -0.284625
-0.177736 -0.273597 -0.293425
-0.177736 -0.264797 -0.293425
-0.186536 -0.255997 -0.284625
-0.186536 -0.247197 -0.293425
-0.186536 -0.247197 -0.284625
-0.177736 -0.255997 -0.293425
-0.177736 -0.247197 -0.293425
-0.151336 -0.308797 -0.311025
-0.151336 -0.299997 -0.311025
-0.142536 -0.308797 -0.311025
-0.142536 -0.299997 -0.311025
-0.151336 -0.291197 -0.311025
-0.151336 -0.282397 -0.311025
-0.142536 -0.291197 -0.311025
-0.142536 -0.282397 -0.311025
-0.124936 -0.299997 -0.319825
-0.133736 -0.308797 -0.311025
-0.133736 -0.299997 -0.311025
-0.133736 -0.291197 -0.319825
-0.133736 -0.282397 -0.319825
-0.124936 -0.291197 -0.319825
-0.133736 -0.291197 -0.311025
-0.133736 -0.282397 -0.311025
-0.151336 -0.273597 -0.311025
-0.151336 -0.264797 -0.311025
-0.142536 -0.273597 -0.311025
-0.142536 -0.264797 -0.311025
-0.151336 -0.255997 -0.311025
-0.151336 -0.247197 -0.311025
-0.142536 -0.255997 -0.311025
-0.142536 -0.247197 -0.311025
-0.133736 -0.273597 -0.319825
-0.133736 -0.264797 -0.319825
-0.124936 -0.273597 -0.319825
-0.124936 -0.264797 -0.319825
-0.133736 -0.264797 -0.311025
-0.133736 -0.255997 -0.319825
-0.133736 -0.247197 -0.319825
-0.124936 -0.255997 -0.319825
-0.124936 -0.247197 -0.319825
-0.133736 -0.255997 -0.311025
-0.168936 -0.238397 -0.302225
-0.168936 -0.229597 -0.302225
-0.160136 -0.238397 -0.302225
-0.160136 -0.229597 -0.302225
-0.168936 -0.220797 -0.302225
-0.168936 -0.211997 -0.302225
-0.160136 -0.220797 -0.302225
-0.160136 -0.211997 -0.302225
-0.186536 -0.238397 -0.284625
-0.186536 -0.229597 -0.284625
-0.177736 -0.238397 -0.293425
-0.177736 -0.229597 -0.293425
-0.186536 -0.220797 -0.284625
-0.186536 -0.211997 -0.284625
-0.177736 -0.220797 -0.293425
-0.177736 -0.211997 -0.293425
-0.168936 -0.211997 -0.293425
-0.168936 -0.194397 -0.302225
-0.160136 -0.203197 -0.302225
-0.160136 -0.194397 -0.302225
-0.168936 -0.185597 -0.302225
-0.168936 -0.176797 -0.302225
-0.160136 -0.185597 -0.302225
-0.160136 -0.176797 -0.302225
-0.186536 -0.203197 -0.293425
-0.186536 -0.203197 -0.284625
-0.186536 -0.194397 -0.293425
-0.177736 -0.203197 -0.293425
-0.177736 -0.194397 -0.293425
-0.186536 -0.185597 -0.284625
-0.186536 -0.176797 -0.293425
-0.186536 -0.176797 -0.284625
-0.177736 -0.185597 -0.293425
-0.168936 -0.203197 -0.293425
-0.151336 -0.238397 -0.311025
-0.151336 -0.229597 -0.311025
-0.142536 -0.238397 -0.311025
-0.142536 -0.229597 -0.311025
-0.151336 -0.220797 -0.311025
-0.151336 -0.211997 -0.311025
-0.142536 -0.211997 -0.311025
-0.133736 -0.238397 -0.319825
-0.133736 -0.229597 -0.319825
-0.124936 -0.238397 -0.319825
-0.124936 -0.229597 -0.319825
-0.133736 -0.238397 -0.311025
-0.133736 -0.211997 -0.319825
-0.124936 -0.220797 -0.319825
-0.124936 -0.211997 -0.319825
-0.133736 -0.220797 -0.311025
-0.133736 -0.211997 -0.311025
-0.151336 -0.203197 -0.311025
-0.151336 -0.194397 -0.311025
-0.142536 -0.203197 -0.311025
-0.142536 -0.194397 -0.311025
-0.151336 -0.185597 -0.311025
-0.151336 -0.176797 -0.311025
-0.142536 -0.185597 -0.311025
-0.142536 -0.176797 -0.311025
-0.133736 -0.203197 -0.319825
-0.133736 -0.194397 -0.319825
-0.124936 -0.203197 -0.319825
-0.124936 -0.194397 -0.319825
-0.133736 -0.185597 -0.319825
-0.133736 -0.176797 -0.319825
-0.124936 -0.185597 -0.319825
-0.124936 -0.176797 -0.319825
-0.133736 -0.185597 -0.311025
-0.133736 -0.176797 -0.311025
-0.336136 -0.335197 -0.020625
-0.336136 -0.326397 -0.047025
-0.336136 -0.326397 -0.038225
-0.336136 -0.317597 -0.047025
-0.336136 -0.317597 -0.038225
-0.336136 -0.326397 -0.029425
-0.336136 -0.326397 -0.020625
-0.336136 -0.317597 -0.029425
-0.336136 -0.317597 -0.020625
-0.336136 -0.335197 -0.011825
-0.336136 -0.335197 -0.003025
-0.336136 -0.326397 -0.011825
-0.336136 -0.326397 -0.003025
-0.336136 -0.317597 -0.003025
-0.336136 -0.326397 0.005775
-0.336136 -0.326397 0.014575
-0.336136 -0.317597 0.005775
-0.336136 -0.317597 0.014575
-0.336136 -0.317597 0.023375
-0.318536 -0.387997 -0.047025
-0.318536 -0.387997 -0.038225
-0.318536 -0.396797 -0.020625
-0.318536 -0.387997 -0.029425
-0.318536 -0.387997 -0.020625
-0.309736 -0.414397 -0.047025
-0.309736 -0.414397 -0.038225
-0.309736 -0.405597 -0.038225
-0.300936 -0.414397 -0.038225
-0.309736 -0.414397 -0.029425
-0.309736 -0.414397 -0.020625
-0.309736 -0.405597 -0.029425
-0.309736 -0.405597 -0.020625
-0.300936 -0.414397 -0.029425
-0.300936 -0.414397 -0.020625
-0.300936 -0.405597 -0.020625
-0.309736 -0.396797 -0.047025
-0.309736 -0.396797 -0.038225
-0.309736 -0.387997 -0.047025
-0.309736 -0.396797 -0.029425
-0.318536 -0.396797 -0.011825
-0.318536 -0.387997 -0.011825
-0.318536 -0.387997 -0.003025
-0.318536 -0.396797 0.014575
-0.318536 -0.387997 0.005775
-0.318536 -0.387997 0.014575
-0.309736 -0.414397 -0.011825
-0.309736 -0.405597 -0.011825
-0.309736 -0.405597 -0.003025
-0.300936 -0.414397 -0.011825
-0.300936 -0.414397 -0.003025
-0.300936 -0.405597 -0.011825
-0.300936 -0.405597 -0.003025
-0.309736 -0.414397 0.005775
-0.309736 -0.414397 0.014575
-0.309736 -0.405597 0.005775
-0.309736 -0.405597 0.014575
-0.300936 -0.405597 0.005775
-0.300936 -0.405597 0.014575
-0.309736 -0.396797 -0.003025
-0.309736 -0.396797 0.005775
-0.309736 -0.396797 0.014575
-0.300936 -0.396797 0.005775
-0.300936 -0.387997 0.014575
-0.292136 -0.414397 -0.047025
-0.292136 -0.414397 -0.038225
-0.292136 -0.405597 -0.038225
-0.292136 -0.414397 -0.029425
-0.292136 -0.405597 -0.029425
-0.318536 -0.396797 0.023375
-0.318536 -0.387997 0.023375
-0.318536 -0.387997 0.032175
-0.309736 -0.405597 0.023375
-0.309736 -0.405597 0.032175
-0.300936 -0.405597 0.032175
-0.300936 -0.405597 0.040975
-0.300936 -0.405597 0.049775
-0.309736 -0.396797 0.032175
-0.300936 -0.396797 0.023375
-0.300936 -0.396797 0.032175
-0.300936 -0.387997 0.023375
-0.300936 -0.387997 0.032175
-0.309736 -0.396797 0.040975
-0.309736 -0.396797 0.049775
-0.309736 -0.387997 0.040975
-0.309736 -0.387997 0.049775
-0.300936 -0.396797 0.040975
-0.300936 -0.396797 0.049775
-0.300936 -0.405597 0.058575
-0.300936 -0.405597 0.076175
-0.309736 -0.396797 0.058575
-0.309736 -0.387997 0.058575
-0.309736 -0.387997 0.067375
-0.300936 -0.396797 0.067375
-0.309736 -0.387997 0.076175
-0.300936 -0.396797 0.076175
-0.300936 -0.396797 0.084975
-0.300936 -0.387997 0.084975
-0.292136 -0.405597 0.067375
-0.292136 -0.405597 0.076175
-0.292136 -0.405597 0.084975
-0.292136 -0.396797 0.058575
-0.292136 -0.396797 0.067375
-0.292136 -0.396797 0.076175
-0.292136 -0.396797 0.084975
-0.318536 -0.379197 -0.047025
-0.318536 -0.379197 -0.038225
-0.318536 -0.370397 -0.047025
-0.318536 -0.370397 -0.038225
-0.318536 -0.379197 -0.029425
-0.318536 -0.379197 -0.020625
-0.318536 -0.370397 -0.029425
-0.318536 -0.370397 -0.020625
-0.327336 -0.361597 -0.038225
-0.327336 -0.352797 -0.038225
-0.318536 -0.361597 -0.047025
-0.318536 -0.361597 -0.038225
-0.318536 -0.352797 -0.047025
-0.327336 -0.361597 -0.020625
-0.327336 -0.352797 -0.029425
-0.327336 -0.352797 -0.020625
-0.318536 -0.361597 -0.029425
-0.318536 -0.361597 -0.020625
-0.318536 -0.379197 -0.011825
-0.318536 -0.379197 -0.003025
-0.318536 -0.370397 -0.011825
-0.318536 -0.370397 -0.003025
-0.318536 -0.379197 0.005775
-0.318536 -0.379197 0.014575
-0.318536 -0.370397 0.005775
-0.318536 -0.370397 0.014575
-0.327336 -0.361597 -0.003025
-0.327336 -0.352797 -0.011825
-0.327336 -0.352797 -0.003025
-0.327336 -0.361597 0.005775
-0.327336 -0.361597 0.014575
-0.327336 -0.352797 0.005775
-0.327336 -0.352797 0.014575
-0.327336 -0.343997 -0.047025
-0.327336 -0.343997 -0.038225
-0.327336 -0.335197 -0.047025
-0.327336 -0.335197 -0.038225
-0.327336 -0.343997 -0.029425
-0.327336 -0.343997 -0.020625
-0.327336 -0.335197 -0.029425
-0.327336 -0.326397 -0.047025
-0.327336 -0.343997 -0.011825
-0.327336 -0.343997 -0.003025
-0.327336 -0.335197 -0.011825
-0.327336 -0.343997 0.005775
-0.327336 -0.343997 0.014575
-0.327336 -0.335197 0.005775
-0.318536 -0.379197 0.032175
-0.318536 -0.370397 0.023375
-0.318536 -0.370397 0.032175
-0.318536 -0.379197 0.040975
-0.318536 -0.370397 0.040975
-0.318536 -0.370397 0.049775
-0.327336 -0.361597 0.023375
-0.327336 -0.352797 0.023375
-0.327336 -0.352797 0.032175
-0.318536 -0.361597 0.023375
-0.318536 -0.361597 0.032175
-0.318536 -0.361597 0.040975
-0.318536 -0.361597 0.049775
-0.318536 -0.352797 0.040975
-0.318536 -0.352797 0.049775
-0.309736 -0.379197 0.040975
-0.309736 -0.379197 0.049775
-0.318536 -0.361597 0.067375
-0.318536 -0.352797 0.058575
-0.318536 -0.352797 0.067375
-0.318536 -0.352797 0.076175
-0.309736 -0.379197 0.058575
-0.309736 -0.379197 0.067375
-0.309736 -0.370397 0.058575
-0.309736 -0.370397 0.067375
-0.309736 -0.379197 0.076175
-0.309736 -0.379197 0.084975
-0.309736 -0.370397 0.076175
-0.300936 -0.379197 0.084975
-0.309736 -0.361597 0.067375
-0.309736 -0.361597 0.076175
-0.309736 -0.361597 0.084975
-0.309736 -0.352797 0.084975
-0.327336 -0.343997 0.023375
-0.327336 -0.343997 0.032175
-0.327336 -0.335197 0.023375
-0.327336 -0.335197 0.032175
-0.327336 -0.343997 0.040975
-0.327336 -0.335197 0.040975
-0.327336 -0.335197 0.049775
-0.318536 -0.343997 0.049775
-0.327336 -0.326397 0.032175
-0.327336 -0.317597 0.032175
-0.327336 -0.326397 0.040975
-0.327336 -0.326397 0.049775
-0.327336 -0.317597 0.040975
-0.327336 -0.317597 0.049775
-0.318536 -0.343997 0.058575
-0.318536 -0.343997 0.067375
-0.318536 -0.335197 0.058575
-0.318536 -0.335197 0.067375
-0.318536 -0.343997 0.076175
-0.318536 -0.343997 0.084975
-0.318536 -0.335197 0.076175
-0.318536 -0.335197 0.084975
-0.327336 -0.326397 0.058575
-0.327336 -0.317597 0.058575
-0.327336 -0.317597 0.067375
-0.318536 -0.326397 0.067375
-0.318536 -0.326397 0.076175
-0.318536 -0.326397 0.084975
-0.318536 -0.317597 0.076175
-0.318536 -0.317597 0.084975
-0.300936 -0.396797 0.093775
-0.300936 -0.387997 0.093775
-0.300936 -0.387997 0.102575
-0.292136 -0.396797 0.093775
-0.292136 -0.396797 0.102575
-0.292136 -0.387997 0.102575
-0.283336 -0.396797 0.093775
-0.283336 -0.396797 0.102575
-0.292136 -0.396797 0.111375
-0.292136 -0.387997 0.111375
-0.292136 -0.387997 0.120175
-0.283336 -0.396797 0.111375
-0.283336 -0.396797 0.120175
-0.283336 -0.387997 0.120175
-0.274536 -0.387997 0.111375
-0.274536 -0.387997 0.120175
-0.283336 -0.387997 0.128975
-0.274536 -0.387997 0.128975
-0.274536 -0.387997 0.137775
-0.265736 -0.387997 0.128975
-0.265736 -0.387997 0.137775
-0.274536 -0.396797 0.146575
-0.274536 -0.387997 0.146575
-0.265736 -0.387997 0.146575
-0.265736 -0.387997 0.155375
-0.265736 -0.387997 0.164175
-0.309736 -0.370397 0.093775
-0.300936 -0.379197 0.093775
-0.300936 -0.379197 0.102575
-0.300936 -0.370397 0.102575
-0.300936 -0.379197 0.111375
-0.300936 -0.370397 0.111375
-0.309736 -0.361597 0.093775
-0.309736 -0.361597 0.102575
-0.309736 -0.352797 0.093775
-0.309736 -0.352797 0.102575
-0.300936 -0.361597 0.102575
-0.300936 -0.361597 0.111375
-0.300936 -0.361597 0.120175
-0.300936 -0.352797 0.111375
-0.300936 -0.352797 0.120175
-0.300936 -0.352797 0.128975
-0.318536 -0.343997 0.093775
-0.318536 -0.335197 0.093775
-0.318536 -0.326397 0.093775
-0.318536 -0.326397 0.102575
-0.318536 -0.317597 0.093775
-0.318536 -0.317597 0.102575
-0.309736 -0.343997 0.093775
-0.309736 -0.343997 0.102575
-0.309736 -0.335197 0.093775
-0.309736 -0.335197 0.102575
-0.309736 -0.343997 0.111375
-0.309736 -0.335197 0.111375
-0.300936 -0.343997 0.111375
-0.300936 -0.343997 0.120175
-0.300936 -0.335197 0.120175
-0.309736 -0.326397 0.111375
-0.309736 -0.326397 0.120175
-0.309736 -0.317597 0.111375
-0.309736 -0.317597 0.120175
-0.300936 -0.326397 0.120175
-0.300936 -0.343997 0.128975
-0.300936 -0.335197 0.128975
-0.300936 -0.326397 0.128975
-0.300936 -0.317597 0.128975
-0.300936 -0.317597 0.137775
-0.292136 -0.379197 0.120175
-0.292136 -0.370397 0.120175
-0.292136 -0.361597 0.120175
-0.292136 -0.379197 0.128975
-0.283336 -0.379197 0.128975
-0.283336 -0.379197 0.137775
-0.283336 -0.370397 0.128975
-0.283336 -0.370397 0.137775
-0.292136 -0.361597 0.128975
-0.292136 -0.361597 0.137775
-0.292136 -0.352797 0.128975
-0.292136 -0.352797 0.137775
-0.283336 -0.361597 0.137775
-0.283336 -0.361597 0.146575
-0.283336 -0.352797 0.146575
-0.274536 -0.379197 0.146575
-0.274536 -0.370397 0.146575
-0.265736 -0.379197 0.155375
-0.265736 -0.370397 0.155375
-0.274536 -0.361597 0.155375
-0.274536 -0.352797 0.155375
-0.292136 -0.343997 0.137775
-0.292136 -0.335197 0.128975
-0.292136 -0.335197 0.137775
-0.292136 -0.335197 0.146575
-0.283336 -0.343997 0.146575
-0.283336 -0.343997 0.155375
-0.283336 -0.335197 0.146575
-0.283336 -0.335197 0.155375
-0.292136 -0.326397 0.137775
-0.292136 -0.326397 0.146575
-0.292136 -0.317597 0.146575
-0.292136 -0.317597 0.155375
-0.283336 -0.326397 0.155375
-0.283336 -0.317597 0.155375
-0.265736 -0.379197 0.164175
-0.265736 -0.370397 0.164175
-0.274536 -0.352797 0.164175
-0.265736 -0.361597 0.164175
-0.265736 -0.361597 0.172975
-0.265736 -0.352797 0.172975
-0.265736 -0.352797 0.181775
-0.283336 -0.326397 0.164175
-0.283336 -0.317597 0.164175
-0.274536 -0.343997 0.164175
-0.274536 -0.335197 0.164175
-0.274536 -0.335197 0.172975
-0.265736 -0.343997 0.172975
-0.265736 -0.335197 0.172975
-0.265736 -0.343997 0.181775
-0.265736 -0.335197 0.181775
-0.274536 -0.326397 0.172975
-0.274536 -0.317597 0.172975
-0.274536 -0.317597 0.181775
-0.265736 -0.326397 0.181775
-0.265736 -0.326397 0.190575
-0.265736 -0.317597 0.181775
-0.336136 -0.308797 -0.047025
-0.336136 -0.308797 -0.038225
-0.336136 -0.299997 -0.047025
-0.336136 -0.299997 -0.038225
-0.336136 -0.308797 -0.029425
-0.336136 -0.308797 -0.020625
-0.336136 -0.299997 -0.029425
-0.336136 -0.299997 -0.020625
-0.336136 -0.291197 -0.047025
-0.336136 -0.291197 -0.038225
-0.336136 -0.282397 -0.047025
-0.336136 -0.282397 -0.038225
-0.336136 -0.291197 -0.029425
-0.336136 -0.291197 -0.020625
-0.336136 -0.282397 -0.029425
-0.336136 -0.282397 -0.020625
-0.336136 -0.308797 -0.011825
-0.336136 -0.308797 -0.003025
-0.336136 -0.299997 -0.003025
-0.336136 -0.308797 0.014575
-0.336136 -0.299997 0.005775
-0.336136 -0.291197 -0.011825
-0.336136 -0.291197 -0.003025
-0.336136 -0.282397 -0.011825
-0.336136 -0.282397 -0.003025
-0.336136 -0.291197 0.005775
-0.336136 -0.291197 0.014575
-0.336136 -0.282397 0.005775
-0.336136 -0.282397 0.014575
-0.336136 -0.273597 -0.047025
-0.336136 -0.273597 -0.038225
-0.336136 -0.264797 -0.047025
-0.336136 -0.264797 -0.038225
-0.336136 -0.273597 -0.029425
-0.336136 -0.273597 -0.020625
-0.336136 -0.264797 -0.029425
-0.336136 -0.264797 -0.020625
-0.336136 -0.255997 -0.038225
-0.336136 -0.247197 -0.047025
-0.336136 -0.247197 -0.038225
-0.336136 -0.255997 -0.029425
-0.336136 -0.255997 -0.020625
-0.336136 -0.247197 -0.029425
-0.336136 -0.247197 -0.020625
-0.336136 -0.273597 -0.011825
-0.336136 -0.273597 -0.003025
-0.336136 -0.264797 -0.011825
-0.336136 -0.264797 -0.003025
-0.336136 -0.273597 0.005775
-0.336136 -0.273597 0.014575
-0.336136 -0.264797 0.005775
-0.336136 -0.264797 0.014575
-0.336136 -0.255997 -0.011825
-0.336136 -0.255997 -0.003025
-0.336136 -0.247197 -0.003025
-0.336136 -0.255997 0.005775
-0.336136 -0.247197 0.005775
-0.336136 -0.247197 0.014575
-0.336136 -0.308797 0.023375
-0.336136 -0.308797 0.032175
-0.336136 -0.299997 0.023375
-0.336136 -0.299997 0.032175
-0.336136 -0.299997 0.040975
-0.336136 -0.291197 0.023375
-0.336136 -0.291197 0.032175
-0.336136 -0.282397 0.023375
-0.336136 -0.282397 0.032175
-0.336136 -0.291197 0.040975
-0.336136 -0.282397 0.040975
-0.336136 -0.282397 0.049775
-0.336136 -0.273597 0.023375
-0.336136 -0.273597 0.032175
-0.336136 -0.264797 0.023375
-0.336136 -0.264797 0.032175
-0.336136 -0.273597 0.040975
-0.336136 -0.264797 0.040975
-0.336136 -0.264797 0.049775
-0.336136 -0.255997 0.023375
-0.336136 -0.255997 0.032175
-0.336136 -0.247197 0.023375
-0.336136 -0.255997 0.040975
-0.336136 -0.255997 0.049775
-0.336136 -0.247197 0.040975
-0.336136 -0.247197 0.058575
-0.336136 -0.238397 -0.047025
-0.336136 -0.238397 -0.038225
-0.336136 -0.229597 -0.047025
-0.336136 -0.229597 -0.038225
-0.336136 -0.238397 -0.029425
-0.336136 -0.229597 -0.029425
-0.336136 -0.229597 -0.020625
-0.336136 -0.220797 -0.047025
-0.336136 -0.220797 -0.038225
-0.336136 -0.211997 -0.047025
-0.336136 -0.211997 -0.038225
-0.336136 -0.220797 -0.020625
-0.336136 -0.211997 -0.029425
-0.336136 -0.211997 -0.020625
-0.336136 -0.238397 -0.011825
-0.336136 -0.238397 -0.003025
-0.336136 -0.229597 -0.011825
-0.336136 -0.229597 -0.003025
-0.336136 -0.238397 0.005775
-0.336136 -0.229597 0.005775
-0.336136 -0.229597 0.014575
-0.336136 -0.220797 -0.011825
-0.336136 -0.220797 -0.003025
-0.336136 -0.211997 -0.011825
-0.336136 -0.211997 -0.003025
-0.336136 -0.220797 0.005775
-0.336136 -0.220797 0.014575
-0.336136 -0.211997 0.005775
-0.336136 -0.211997 0.014575
-0.336136 -0.203197 -0.047025
-0.336136 -0.203197 -0.038225
-0.336136 -0.194397 -0.047025
-0.336136 -0.194397 -0.038225
-0.336136 -0.203197 -0.029425
-0.336136 -0.203197 -0.020625
-0.336136 -0.194397 -0.029425
-0.336136 -0.194397 -0.020625
-0.336136 -0.185597 -0.047025
-0.336136 -0.185597 -0.038225
-0.336136 -0.176797 -0.038225
-0.336136 -0.185597 -0.029425
-0.336136 -0.185597 -0.020625
-0.336136 -0.176797 -0.029425
-0.336136 -0.176797 -0.020625
-0.336136 -0.203197 -0.011825
-0.336136 -0.203197 -0.003025
-0.336136 -0.194397 -0.011825
-0.336136 -0.194397 -0.003025
-0.336136 -0.203197 0.005775
-0.336136 -0.203197 0.014575
-0.336136 -0.194397 0.005775
-0.336136 -0.194397 0.014575
-0.336136 -0.176797 -0.011825
-0.336136 -0.176797 -0.003025
-0.336136 -0.185597 0.005775
-0.336136 -0.185597 0.014575
-0.336136 -0.176797 0.005775
-0.336136 -0.176797 0.014575
-0.336136 -0.238397 0.023375
-0.336136 -0.238397 0.032175
-0.336136 -0.229597 0.023375
-0.336136 -0.229597 0.032175
-0.336136 -0.238397 0.049775
-0.336136 -0.229597 0.040975
-0.336136 -0.229597 0.049775
-0.336136 -0.220797 0.023375
-0.336136 -0.220797 0.032175
-0.336136 -0.211997 0.032175
-0.336136 -0.220797 0.040975
-0.336136 -0.220797 0.049775
-0.336136 -0.211997 0.040975
-0.336136 -0.238397 0.058575
-0.336136 -0.220797 0.058575
-0.336136 -0.211997 0.058575
-0.336136 -0.203197 0.023375
-0.336136 -0.203197 0.032175
-0.336136 -0.194397 0.023375
-0.336136 -0.194397 0.032175
-0.336136 -0.203197 0.040975
-0.336136 -0.203197 0.049775
-0.336136 -0.194397 0.040975
-0.336136 -0.194397 0.049775
-0.336136 -0.185597 0.023375
-0.336136 -0.185597 0.032175
-0.336136 -0.176797 0.023375
-0.336136 -0.176797 0.032175
-0.336136 -0.185597 0.040975
-0.336136 -0.185597 0.049775
-0.336136 -0.176797 0.040975
-0.336136 -0.176797 0.049775
-0.336136 -0.203197 0.058575
-0.336136 -0.194397 0.058575
-0.336136 -0.185597 0.058575
-0.336136 -0.176797 0.058575
-0.336136 -0.176797 0.067375
-0.327336 -0.308797 0.049775
-0.327336 -0.291197 0.049775
-0.327336 -0.308797 0.058575
-0.327336 -0.308797 0.067375
-0.327336 -0.299997 0.058575
-0.327336 -0.299997 0.067375
-0.327336 -0.299997 0.076175
-0.327336 -0.299997 0.084975
-0.318536 -0.308797 0.084975
-0.318536 -0.299997 0.084975
-0.327336 -0.291197 0.058575
-0.327336 -0.291197 0.067375
-0.327336 -0.282397 0.058575
-0.327336 -0.282397 0.067375
-0.327336 -0.291197 0.076175
-0.327336 -0.291197 0.084975
-0.327336 -0.282397 0.076175
-0.318536 -0.282397 0.084975
-0.327336 -0.273597 0.049775
-0.327336 -0.273597 0.058575
-0.327336 -0.273597 0.067375
-0.327336 -0.264797 0.058575
-0.327336 -0.264797 0.067375
-0.327336 -0.273597 0.076175
-0.327336 -0.273597 0.084975
-0.327336 -0.264797 0.076175
-0.327336 -0.264797 0.084975
-0.327336 -0.255997 0.058575
-0.327336 -0.255997 0.067375
-0.327336 -0.247197 0.067375
-0.327336 -0.255997 0.076175
-0.327336 -0.255997 0.084975
-0.327336 -0.247197 0.076175
-0.327336 -0.247197 0.084975
-0.327336 -0.238397 0.058575
-0.327336 -0.238397 0.067375
-0.327336 -0.229597 0.058575
-0.327336 -0.229597 0.067375
-0.327336 -0.238397 0.076175
-0.327336 -0.238397 0.084975
-0.327336 -0.229597 0.076175
-0.327336 -0.229597 0.084975
-0.327336 -0.220797 0.067375
-0.327336 -0.211997 0.058575
-0.327336 -0.211997 0.067375
-0.327336 -0.220797 0.076175
-0.327336 -0.220797 0.084975
-0.327336 -0.211997 0.076175
-0.327336 -0.211997 0.084975
-0.327336 -0.203197 0.067375
-0.327336 -0.194397 0.067375
-0.327336 -0.203197 0.084975
-0.327336 -0.194397 0.076175
-0.327336 -0.194397 0.084975
-0.327336 -0.185597 0.067375
-0.327336 -0.185597 0.076175
-0.327336 -0.185597 0.084975
-0.327336 -0.176797 0.084975
-0.318536 -0.308797 0.093775
-0.318536 -0.308797 0.102575
-0.318536 -0.299997 0.093775
-0.318536 -0.299997 0.102575
-0.318536 -0.299997 0.111375
-0.318536 -0.291197 0.093775
-0.318536 -0.291197 0.102575
-0.318536 -0.282397 0.093775
-0.318536 -0.282397 0.102575
-0.318536 -0.291197 0.111375
-0.318536 -0.282397 0.111375
-0.309736 -0.308797 0.111375
-0.309736 -0.308797 0.120175
-0.309736 -0.299997 0.120175
-0.309736 -0.291197 0.120175
-0.309736 -0.282397 0.120175
-0.309736 -0.299997 0.128975
-0.300936 -0.308797 0.128975
-0.300936 -0.308797 0.137775
-0.300936 -0.299997 0.137775
-0.300936 -0.308797 0.146575
-0.300936 -0.299997 0.146575
-0.309736 -0.291197 0.128975
-0.309736 -0.282397 0.128975
-0.300936 -0.291197 0.137775
-0.300936 -0.282397 0.137775
-0.300936 -0.291197 0.146575
-0.300936 -0.282397 0.146575
-0.318536 -0.273597 0.093775
-0.318536 -0.273597 0.102575
-0.318536 -0.264797 0.093775
-0.318536 -0.264797 0.102575
-0.318536 -0.273597 0.111375
-0.318536 -0.264797 0.111375
-0.318536 -0.255997 0.093775
-0.318536 -0.255997 0.102575
-0.318536 -0.247197 0.093775
-0.318536 -0.255997 0.111375
-0.318536 -0.247197 0.111375
-0.309736 -0.273597 0.111375
-0.309736 -0.273597 0.120175
-0.309736 -0.264797 0.120175
-0.309736 -0.255997 0.120175
-0.309736 -0.247197 0.111375
-0.309736 -0.273597 0.128975
-0.309736 -0.264797 0.128975
-0.300936 -0.273597 0.137775
-0.300936 -0.264797 0.137775
-0.300936 -0.273597 0.146575
-0.300936 -0.264797 0.146575
-0.309736 -0.255997 0.128975
-0.309736 -0.255997 0.137775
-0.309736 -0.247197 0.128975
-0.300936 -0.255997 0.137775
-0.300936 -0.247197 0.137775
-0.300936 -0.255997 0.146575
-0.300936 -0.247197 0.146575
-0.292136 -0.308797 0.146575
-0.292136 -0.308797 0.155375
-0.292136 -0.299997 0.146575
-0.283336 -0.299997 0.155375
-0.292136 -0.291197 0.146575
-0.292136 -0.291197 0.155375
-0.292136 -0.282397 0.146575
-0.292136 -0.273597 0.155375
-0.292136 -0.264797 0.155375
-0.292136 -0.255997 0.155375
-0.292136 -0.247197 0.155375
-0.283336 -0.308797 0.164175
-0.283336 -0.308797 0.172975
-0.283336 -0.299997 0.164175
-0.283336 -0.299997 0.172975
-0.283336 -0.291197 0.164175
-0.283336 -0.291197 0.172975
-0.283336 -0.282397 0.164175
-0.283336 -0.282397 0.172975
-0.274536 -0.308797 0.172975
-0.274536 -0.299997 0.172975
-0.274536 -0.308797 0.181775
-0.274536 -0.299997 0.181775
-0.265736 -0.308797 0.190575
-0.265736 -0.299997 0.190575
-0.274536 -0.291197 0.181775
-0.274536 -0.282397 0.181775
-0.265736 -0.291197 0.190575
-0.265736 -0.282397 0.190575
-0.265736 -0.299997 0.199375
-0.265736 -0.291197 0.199375
-0.265736 -0.282397 0.199375
-0.283336 -0.273597 0.164175
-0.283336 -0.273597 0.172975
-0.283336 -0.264797 0.164175
-0.283336 -0.264797 0.172975
-0.283336 -0.255997 0.164175
-0.283336 -0.255997 0.172975
-0.283336 -0.247197 0.172975
-0.274536 -0.273597 0.172975
-0.274536 -0.273597 0.181775
-0.274536 -0.273597 0.190575
-0.274536 -0.264797 0.181775
-0.265736 -0.273597 0.190575
-0.265736 -0.264797 0.190575
-0.274536 -0.255997 0.172975
-0.274536 -0.255997 0.181775
-0.274536 -0.255997 0.190575
-0.274536 -0.247197 0.181775
-0.274536 -0.247197 0.190575
-0.265736 -0.247197 0.190575
-0.265736 -0.264797 0.199375
-0.265736 -0.255997 0.199375
-0.265736 -0.247197 0.199375
-0.327336 -0.238397 0.093775
-0.327336 -0.229597 0.093775
-0.318536 -0.238397 0.093775
-0.318536 -0.238397 0.102575
-0.318536 -0.229597 0.093775
-0.318536 -0.229597 0.102575
-0.318536 -0.238397 0.111375
-0.318536 -0.229597 0.111375
-0.318536 -0.220797 0.093775
-0.318536 -0.220797 0.102575
-0.318536 -0.211997 0.093775
-0.318536 -0.211997 0.102575
-0.318536 -0.220797 0.111375
-0.318536 -0.211997 0.111375
-0.309736 -0.238397 0.111375
-0.309736 -0.238397 0.120175
-0.309736 -0.229597 0.120175
-0.309736 -0.220797 0.111375
-0.309736 -0.220797 0.120175
-0.309736 -0.211997 0.120175
-0.309736 -0.238397 0.128975
-0.309736 -0.238397 0.137775
-0.309736 -0.229597 0.128975
-0.300936 -0.238397 0.137775
-0.300936 -0.229597 0.137775
-0.300936 -0.238397 0.146575
-0.300936 -0.229597 0.146575
-0.309736 -0.220797 0.128975
-0.309736 -0.211997 0.128975
-0.300936 -0.220797 0.137775
-0.300936 -0.211997 0.137775
-0.300936 -0.220797 0.146575
-0.300936 -0.211997 0.146575
-0.327336 -0.203197 0.093775
-0.327336 -0.194397 0.093775
-0.318536 -0.203197 0.093775
-0.318536 -0.203197 0.102575
-0.318536 -0.194397 0.093775
-0.318536 -0.194397 0.102575
-0.318536 -0.203197 0.111375
-0.318536 -0.194397 0.111375
-0.327336 -0.185597 0.093775
-0.327336 -0.176797 0.093775
-0.318536 -0.185597 0.102575
-0.318536 -0.176797 0.102575
-0.318536 -0.185597 0.111375
-0.318536 -0.176797 0.111375
-0.309736 -0.203197 0.120175
-0.309736 -0.194397 0.120175
-0.309736 -0.185597 0.120175
-0.309736 -0.176797 0.120175
-0.309736 -0.203197 0.128975
-0.309736 -0.194397 0.128975
-0.300936 -0.203197 0.137775
-0.300936 -0.194397 0.137775
-0.300936 -0.203197 0.146575
-0.300936 -0.194397 0.146575
-0.309736 -0.185597 0.128975
-0.309736 -0.176797 0.128975
-0.300936 -0.185597 0.137775
-0.300936 -0.176797 0.137775
-0.300936 -0.185597 0.146575
-0.300936 -0.176797 0.146575
-0.292136 -0.238397 0.155375
-0.292136 -0.229597 0.155375
-0.292136 -0.220797 0.155375
-0.292136 -0.211997 0.155375
-0.292136 -0.203197 0.155375
-0.292136 -0.194397 0.155375
-0.292136 -0.185597 0.146575
-0.292136 -0.185597 0.155375
-0.292136 -0.176797 0.155375
-0.292136 -0.229597 0.164175
-0.283336 -0.238397 0.164175
-0.283336 -0.238397 0.172975
-0.283336 -0.229597 0.164175
-0.283336 -0.229597 0.172975
-0.283336 -0.238397 0.181775
-0.292136 -0.211997 0.164175
-0.283336 -0.220797 0.172975
-0.283336 -0.211997 0.164175
-0.283336 -0.211997 0.172975
-0.283336 -0.220797 0.181775
-0.283336 -0.211997 0.181775
-0.274536 -0.238397 0.181775
-0.274536 -0.238397 0.190575
-0.274536 -0.229597 0.181775
-0.274536 -0.229597 0.190575
-0.274536 -0.220797 0.181775
-0.274536 -0.220797 0.190575
-0.274536 -0.211997 0.181775
-0.274536 -0.211997 0.190575
-0.265736 -0.238397 0.199375
-0.265736 -0.229597 0.199375
-0.265736 -0.220797 0.199375
-0.265736 -0.211997 0.199375
-0.283336 -0.203197 0.164175
-0.283336 -0.203197 0.172975
-0.283336 -0.194397 0.164175
-0.283336 -0.194397 0.172975
-0.292136 -0.185597 0.164175
-0.292136 -0.176797 0.164175
-0.283336 -0.185597 0.172975
-0.283336 -0.176797 0.164175
-0.283336 -0.176797 0.181775
-0.274536 -0.203197 0.181775
-0.274536 -0.203197 0.190575
-0.274536 -0.194397 0.181775
-0.274536 -0.194397 0.190575
-0.265736 -0.203197 0.190575
-0.274536 -0.185597 0.181775
-0.274536 -0.185597 0.190575
-0.274536 -0.176797 0.181775
-0.274536 -0.176797 0.190575
-0.265736 -0.203197 0.199375
-0.265736 -0.194397 0.199375
-0.265736 -0.185597 0.208175
-0.265736 -0.176797 0.199375
-0.265736 -0.176797 0.208175
-0.221736 -0.414397 0.084975
-0.212936 -0.414397 0.076175
-0.212936 -0.414397 0.084975
-0.186536 -0.414397 -0.047025
-0.186536 -0.414397 -0.038225
-0.177736 -0.414397 -0.047025
-0.177736 -0.405597 -0.038225
-0.168936 -0.405597 -0.047025
-0.168936 -0.396797 -0.047025
-0.168936 -0.396797 -0.038225
-0.160136 -0.396797 -0.047025
-0.160136 -0.387997 -0.047025
-0.151336 -0.387997 -0.047025
-0.256936 -0.387997 0.146575
-0.256936 -0.387997 0.155375
-0.248136 -0.387997 0.155375
-0.239336 -0.387997 0.155375
-0.221736 -0.414397 0.093775
-0.221736 -0.414397 0.102575
-0.212936 -0.414397 0.093775
-0.212936 -0.414397 0.102575
-0.212936 -0.405597 0.093775
-0.221736 -0.414397 0.111375
-0.212936 -0.414397 0.120175
-0.204136 -0.414397 0.102575
-0.204136 -0.414397 0.111375
-0.204136 -0.414397 0.120175
-0.204136 -0.405597 0.111375
-0.195336 -0.405597 0.120175
-0.212936 -0.414397 0.128975
-0.212936 -0.414397 0.146575
-0.204136 -0.414397 0.137775
-0.195336 -0.414397 0.128975
-0.195336 -0.414397 0.137775
-0.204136 -0.414397 0.146575
-0.204136 -0.414397 0.155375
-0.195336 -0.414397 0.155375
-0.256936 -0.387997 0.164175
-0.256936 -0.387997 0.172975
-0.248136 -0.387997 0.164175
-0.248136 -0.387997 0.172975
-0.248136 -0.387997 0.181775
-0.239336 -0.387997 0.164175
-0.239336 -0.387997 0.172975
-0.239336 -0.387997 0.181775
-0.239336 -0.387997 0.190575
-0.230536 -0.387997 0.190575
-0.239336 -0.387997 0.199375
-0.230536 -0.387997 0.199375
-0.221736 -0.387997 0.190575
-0.221736 -0.387997 0.199375
-0.221736 -0.387997 0.208175
-0.212936 -0.387997 0.208175
-0.212936 -0.387997 0.216975
-0.204136 -0.387997 0.216975
-0.204136 -0.387997 0.225775
-0.256936 -0.379197 0.137775
-0.248136 -0.379197 0.146575
-0.256936 -0.379197 0.164175
-0.256936 -0.379197 0.172975
-0.256936 -0.370397 0.172975
-0.256936 -0.379197 0.181775
-0.248136 -0.379197 0.181775
-0.248136 -0.379197 0.190575
-0.248136 -0.370397 0.181775
-0.248136 -0.370397 0.190575
-0.256936 -0.361597 0.181775
-0.256936 -0.361597 0.190575
-0.256936 -0.352797 0.181775
-0.256936 -0.352797 0.190575
-0.248136 -0.361597 0.190575
-0.239336 -0.379197 0.190575
-0.248136 -0.370397 0.199375
-0.248136 -0.361597 0.199375
-0.248136 -0.352797 0.199375
-0.239336 -0.379197 0.199375
-0.239336 -0.370397 0.199375
-0.230536 -0.379197 0.199375
-0.230536 -0.379197 0.208175
-0.230536 -0.370397 0.208175
-0.230536 -0.370397 0.216975
-0.239336 -0.361597 0.208175
-0.239336 -0.352797 0.199375
-0.239336 -0.352797 0.208175
-0.230536 -0.361597 0.208175
-0.230536 -0.361597 0.216975
-0.230536 -0.352797 0.216975
-0.230536 -0.352797 0.225775
-0.256936 -0.343997 0.190575
-0.256936 -0.335197 0.190575
-0.256936 -0.326397 0.190575
-0.256936 -0.335197 0.199375
-0.248136 -0.343997 0.199375
-0.248136 -0.343997 0.208175
-0.248136 -0.335197 0.199375
-0.248136 -0.335197 0.208175
-0.256936 -0.326397 0.199375
-0.256936 -0.317597 0.199375
-0.248136 -0.326397 0.208175
-0.248136 -0.317597 0.208175
-0.248136 -0.326397 0.216975
-0.248136 -0.317597 0.216975
-0.239336 -0.343997 0.208175
-0.239336 -0.343997 0.216975
-0.239336 -0.335197 0.216975
-0.230536 -0.343997 0.225775
-0.230536 -0.335197 0.225775
-0.239336 -0.326397 0.216975
-0.239336 -0.317597 0.216975
-0.239336 -0.317597 0.225775
-0.230536 -0.326397 0.225775
-0.221736 -0.379197 0.208175
-0.221736 -0.379197 0.216975
-0.221736 -0.370397 0.216975
-0.221736 -0.370397 0.225775
-0.212936 -0.379197 0.216975
-0.212936 -0.379197 0.225775
-0.212936 -0.370397 0.225775
-0.221736 -0.361597 0.216975
-0.221736 -0.361597 0.225775
-0.221736 -0.352797 0.225775
-0.204136 -0.379197 0.225775
-0.195336 -0.379197 0.225775
-0.186536 -0.405597 0.120175
-0.186536 -0.414397 0.137775
-0.186536 -0.405597 0.128975
-0.177736 -0.414397 0.137775
-0.177736 -0.405597 0.128975
-0.177736 -0.405597 0.137775
